NCOLS         475
NROWS         30
XLLCENTER  -5439652.925
YLLCENTER  -6567691.55
CELLSIZE  25067.525
NODATA_value  -9999
-9999 -9999 -9999 -9999 -9999 -9999 -9999 -9999 -9999 -9999 -9999 -9999 -9999 -9999 -9999 -9999 -9999 -9999 -9999 -9999 -9999 -9999 -9999 -9999 -9999 -9999 -9999 -9999 -9999 -9999 -9999 -9999 -9999 -9999 -9999 -9999 -9999 -9999 -9999 -9999 -9999 -9999 -9999 -9999 -9999 -9999 -9999 -9999 -9999 -9999 -9999 -9999 -9999 -9999 -9999 -9999 -9999 -9999 -9999 -9999 -9999 -9999 -9999 -9999 -9999 -9999 -9999 -9999 -9999 -9999 -9999 -9999 -9999 -9999 -9999 -9999 -9999 -9999 -9999 -9999 -9999 -9999 -9999 -9999 -9999 -9999 -9999 -9999 -9999 -9999 -9999 -9999 -9999 -9999 -9999 -9999 -9999 -9999 -9999 -9999 -9999 -9999 -9999 -9999 -9999 -9999 -9999 -9999 -9999 -9999 -9999 -9999 -9999 -9999 -9999 -9999 -9999 -9999 -9999 -9999 -9999 -9999 -9999 -9999 -9999 -9999 -9999 -9999 -9999 -9999 -9999 -9999 -9999 -9999 -9999 -9999 -9999 -9999 -9999 -9999 -9999 -9999 -9999 -9999 -9999 -9999 750.54 -9999 -9999 -9999 -9999 -9999 -9999 -9999 -9999 -9999 -9999 -9999 -9999 -9999 -9999 -9999 -9999 -9999 -9999 -9999 -9999 -9999 -9999 -9999 -9999 -9999 -9999 -9999 -9999 -9999 -9999 -9999 -9999 -9999 -9999 -9999 -9999 -9999 -9999 -9999 -9999 -9999 -9999 -9999 -9999 -9999 47.83 74.12 404.22 678.48 1026.7 614.97 465.15 -9999 -9999 -9999 -9999 -9999 -9999 186.64 -9999 -9999 -9999 -9999 -9999 -9999 107.34 141.81 213.78 391.59 343.94 336.09 549.87 495.11 458.27 647.15 784.25 913.1 914.79 845.98 772.19 722.59 735.9 741.66 791.42 892.76 804.28 832.52 601.91 501.86 497.94 494.24 412.7 512.52 521.74 917.05 1091.19 1241.16 1028.17 1041.34 1062.95 1026.26 940.35 906.9 925.44 771.89 646.51 538.62 451.97 439.51 302.03 194.55 73.31 39.52 -9999 -9999 -9999 -9999 -9999 -9999 -9999 -9999 -9999 -9999 -9999 -9999 -9999 -9999 -9999 -9999 -9999 -9999 -9999 -9999 -9999 -9999 -9999 -9999 -9999 -9999 -9999 -9999 -9999 -9999 -9999 -9999 -9999 -9999 -9999 -9999 -9999 -9999 -9999 -9999 -9999 -9999 32.99 59.33 91.23 104.95 86.05 84.7 115.2 99.61 90.24 98 97.55 89.42 81.23 75.21 80.3 77.78 62.65 69.51 70.43 108.82 88.11 10.1 3.58 7.57 55.65 69.26 79.89 100.96 101.7 117.97 122.71 147.81 147.21 153.26 153.14 161.46 171.61 211.91 242.81 175.79 54.69 97.6 126.08 237.1 278.38 279.31 275.84 299.7 340.4 357.8 392.05 374.74 263.49 100.92 266.32 394.53 404.25 407.63 439.68 462.28 468.66 464.36 397.25 278.54 219.25 193.66 197.43 277.27 349.6 403.32 416.74 510.36 558.55 459.91 473.65 443.95 486.04 528.57 643.46 733.54 697.3 551.86 518.1 409.35 460.65 676.27 536.83 636.1 919.31 843.41 409.13 146.14 60.34 -9999 -9999 -9999 -9999 -9999 -9999 -9999 -9999 -9999 -9999 -9999 -9999 -9999 -9999 -9999 -9999 -9999 -9999 -9999 -9999 -9999 -9999 -9999 -9999 -9999 -9999 -9999 -9999 -9999 -9999 -9999 -9999 -9999 45.21 14.47 140.98 193.64 76 193.69 374.59 386.89 94.57 -9999 -9999 -9999 -9999 -9999 -9999 -9999 95.48 230.18 710.38 1130.14 1226.97 1056.96 957.23 915.98 890.14 866.01 836.71 757.95 681.24 631.86 573.35 517.18 464.5 427.61 376.78 330.09 301.24 260.38 206.92 160.08 138.62 131.13 135.25 145.13 150.94 -9999 -9999
-9999 -9999 -9999 -9999 -9999 -9999 -9999 -9999 -9999 -9999 -9999 -9999 -9999 -9999 -9999 -9999 -9999 -9999 -9999 -9999 -9999 -9999 -9999 -9999 -9999 -9999 -9999 -9999 -9999 -9999 -9999 -9999 -9999 -9999 -9999 -9999 -9999 -9999 -9999 -9999 -9999 -9999 -9999 -9999 -9999 -9999 -9999 -9999 -9999 -9999 -9999 -9999 -9999 -9999 -9999 -9999 -9999 -9999 -9999 -9999 -9999 -9999 -9999 -9999 -9999 -9999 -9999 -9999 -9999 -9999 -9999 -9999 -9999 -9999 -9999 -9999 -9999 -9999 -9999 -9999 -9999 -9999 -9999 -9999 -9999 -9999 -9999 -9999 -9999 -9999 -9999 -9999 -9999 -9999 -9999 -9999 -9999 -9999 -9999 -9999 -9999 -9999 -9999 -9999 -9999 -9999 -9999 -9999 -9999 -9999 -9999 -9999 -9999 -9999 -9999 -9999 -9999 -9999 -9999 -9999 -9999 -9999 -9999 -9999 -9999 -9999 -9999 -9999 -9999 -9999 -9999 -9999 -9999 -9999 -9999 -9999 -9999 -9999 -9999 -9999 -9999 -9999 -9999 -9999 -9999 -9999 -9999 -9999 -9999 -9999 -9999 -9999 -9999 -9999 -9999 -9999 -9999 -9999 -9999 -9999 -9999 -9999 -9999 -9999 -9999 -9999 -9999 -9999 -9999 -9999 -9999 -9999 -9999 -9999 -9999 -9999 -9999 -9999 -9999 -9999 -9999 -9999 -9999 -9999 -9999 -9999 -9999 -9999 -9999 -9999 -9999 -9999 60.63 145.72 229.09 470.6 671.9 927.6 1100.7 887.01 696.18 556.25 662.45 409.21 200.95 174.34 -9999 103.08 -9999 -9999 -9999 204.33 375.06 504.25 557.13 556.02 542.42 477.2 681.45 802.45 730.83 897.61 1017.94 1136.36 1187.42 1020.12 875.53 784.68 824.78 885.5 892.37 902.26 1014.9 1007.2 1086.34 943.49 695.75 641.32 456.31 250.07 236.22 240.41 358.28 224.76 226.55 260.01 322.08 371.01 490.87 652.44 666.43 621.05 490.78 351.41 421.37 449.48 162.28 64.48 45.43 -9999 -9999 -9999 -9999 -9999 -9999 -9999 -9999 -9999 -9999 -9999 -9999 -9999 -9999 -9999 -9999 -9999 -9999 -9999 -9999 -9999 -9999 -9999 -9999 -9999 -9999 -9999 -9999 -9999 -9999 -9999 -9999 -9999 -9999 -9999 -9999 -9999 -9999 -9999 -9999 -9999 -9999 -9999 -9999 26.48 59.25 97.09 83.17 72.26 88 71.37 56.3 75.64 64.09 53.94 48.77 53.98 56.66 66.86 67.83 65.36 60.95 64.14 64.28 78.21 39.04 38.6 58.06 100.91 111.67 118.59 119.41 121.89 138.87 138.08 152.34 155.09 152.01 162.55 195.17 235.54 206.29 162.31 74.68 106.2 155.43 170.36 180.36 239.29 267.71 261.74 332.15 419.77 442.76 292.74 160.89 72.33 78 252.13 347.7 395.74 419.66 427.76 432.87 441.8 468.74 383.63 232.06 198.73 184.53 219.77 322.25 367.68 342.13 409.25 458.3 392.6 371.65 385.87 407.5 467.77 573.34 791.81 745.79 525.7 510.7 469.21 414.89 565.76 654.86 686.23 829.43 960.09 736.62 426.89 185.8 100.71 -9999 -9999 -9999 -9999 -9999 34.59 59.56 48.98 47.19 -9999 -9999 -9999 -9999 -9999 -9999 -9999 -9999 -9999 -9999 -9999 -9999 -9999 -9999 -9999 -9999 -9999 73.32 118.72 61.87 58.71 206.87 343.33 248.52 226.39 355.58 341.61 398.13 446.17 704.55 622.18 -9999 -9999 -9999 14.41 -9999 13.53 46.34 122.97 366.1 776.36 993.99 1178.22 1068.78 1015.21 1036.16 1005.14 938.61 847.38 779.16 706.36 635.37 591.94 547.87 500.33 446 403.87 348.65 300.06 257.87 213.1 166.02 142.79 138.18 136.65 137.96 144.11 150.3 -9999 -9999
-9999 -9999 -9999 -9999 -9999 -9999 -9999 -9999 -9999 -9999 -9999 -9999 -9999 -9999 -9999 -9999 -9999 -9999 -9999 -9999 -9999 -9999 -9999 -9999 -9999 -9999 -9999 -9999 -9999 -9999 -9999 -9999 -9999 -9999 -9999 -9999 -9999 -9999 -9999 -9999 -9999 -9999 -9999 -9999 -9999 -9999 -9999 -9999 -9999 -9999 -9999 -9999 -9999 -9999 -9999 -9999 -9999 -9999 -9999 -9999 -9999 -9999 -9999 -9999 -9999 -9999 -9999 -9999 -9999 -9999 -9999 -9999 -9999 -9999 -9999 -9999 -9999 -9999 -9999 -9999 -9999 -9999 -9999 -9999 -9999 -9999 -9999 -9999 -9999 -9999 -9999 -9999 -9999 -9999 -9999 -9999 -9999 -9999 -9999 -9999 -9999 -9999 -9999 -9999 -9999 -9999 -9999 -9999 -9999 -9999 -9999 -9999 -9999 -9999 -9999 -9999 -9999 -9999 -9999 -9999 -9999 -9999 -9999 -9999 -9999 -9999 -9999 -9999 -9999 -9999 -9999 -9999 -9999 -9999 -9999 -9999 -9999 -9999 -9999 -9999 -9999 -9999 -9999 -9999 -9999 -9999 -9999 -9999 -9999 -9999 -9999 -9999 -9999 -9999 -9999 -9999 -9999 -9999 -9999 -9999 -9999 -9999 -9999 -9999 -9999 -9999 -9999 -9999 -9999 -9999 -9999 -9999 -9999 -9999 -9999 -9999 -9999 -9999 -9999 -9999 -9999 -9999 -9999 -9999 -9999 -9999 -9999 -9999 -9999 -9999 -9999 12.9 19.51 69.06 164.23 307.17 354.1 587.73 944.71 1214.17 1190.09 1185.99 820.11 546.61 462.5 356.2 251.33 401.46 551.07 450.75 459.2 544.6 801.95 785.47 787.25 769.13 713.74 776.17 904.34 1043.11 932.16 1020.45 1121.24 1142.52 1174.35 1107.04 919.41 872.91 871.38 896.69 1024.74 1174.89 1152.25 1138.55 982.96 839.38 706.96 417.18 258.51 205.64 112.17 51.25 3.36 -8.16 18 42.1 111.01 159.62 241.83 340.79 272.85 244.16 181.51 243.43 335.79 177.89 113 70.07 53.36 -9999 -9999 -9999 15.22 -9999 -9999 -9999 -9999 -9999 -9999 -9999 -9999 -9999 -9999 -9999 -9999 -9999 -9999 -9999 -9999 -9999 -9999 -9999 -9999 -9999 -9999 -9999 -9999 -9999 -9999 -9999 -9999 -9999 -9999 -9999 -9999 -9999 -9999 -9999 -9999 -9999 -9999 -9999 -9999 -9999 46.57 87.79 56.53 38.87 40.57 48.43 60.7 54.66 45.78 51.39 54.1 49.42 50.39 65.96 73.07 73.42 75.37 78.2 90.74 134.54 122.88 132.77 134.78 122.61 126.41 132.52 135.52 137.93 146.64 137.7 149.45 153.11 152.17 166.59 146.08 197.79 311.53 149.61 116.55 145.4 180.52 204.18 201.59 225.8 271.54 359.77 450.54 517.3 549.86 412.91 191.94 101.94 43.23 164.45 270.6 344.98 374.81 399.34 415.56 425.38 446.54 428.21 271.01 197.1 201.66 179.66 241.66 235.88 269.53 301.54 340.67 316.26 369.9 397.4 495.12 514.51 551.68 747.2 710.33 569.73 522.29 480.21 459.83 502.9 615.26 651.65 838.89 880.7 721.73 668.39 432.76 244.2 113.49 52.22 23.99 30.23 49.2 276.2 435.42 276.01 225.3 232.7 151.38 62.03 -9999 -9999 -9999 -9999 -9999 -9999 12.88 -9999 -9999 -9999 -9999 20.61 58.52 278.52 470.94 551.38 309.84 472.26 742.92 859.81 347.45 502.37 458.21 577.71 598.58 623.35 902.81 489.01 218.69 145.72 103 96.49 97.68 130.72 255.21 530.25 897.62 1076.77 1175.38 1145.54 1087.2 1110.55 1075.71 989.84 899.46 804.85 734.38 678.66 634.26 589.22 539.01 498.62 445.6 390.12 331.51 275.09 227.09 184.25 149.81 144.18 146.12 144.56 141.27 139.98 143.99 -9999 -9999
-9999 -9999 -9999 -9999 -9999 -9999 -9999 -9999 -9999 -9999 -9999 -9999 -9999 -9999 -9999 -9999 -9999 -9999 -9999 -9999 -9999 -9999 -9999 -9999 -9999 -9999 -9999 -9999 -9999 -9999 -9999 -9999 -9999 -9999 -9999 -9999 -9999 -9999 -9999 -9999 -9999 -9999 -9999 -9999 -9999 -9999 -9999 -9999 -9999 -9999 -9999 -9999 -9999 -9999 -9999 -9999 -9999 -9999 -9999 -9999 -9999 -9999 -9999 -9999 -9999 -9999 -9999 -9999 -9999 -9999 -9999 -9999 -9999 -9999 -9999 -9999 -9999 -9999 -9999 -9999 -9999 -9999 -9999 -9999 -9999 -9999 -9999 -9999 -9999 -9999 -9999 -9999 -9999 -9999 -9999 -9999 -9999 -9999 -9999 -9999 -9999 -9999 -9999 -9999 -9999 -9999 -9999 -9999 -9999 -9999 -9999 -9999 -9999 -9999 -9999 -9999 -9999 -9999 -9999 -9999 -9999 -9999 -9999 -9999 -9999 -9999 -9999 -9999 -9999 -9999 -9999 -9999 -9999 -9999 -9999 -9999 -9999 -9999 -9999 -9999 -9999 -9999 -9999 -9999 -9999 -9999 -9999 -9999 -9999 -9999 -9999 -9999 -9999 -9999 -9999 -9999 -9999 -9999 -9999 -9999 -9999 -9999 -9999 -9999 -9999 -9999 -9999 -9999 -9999 -9999 -9999 -9999 -9999 -9999 -9999 -9999 -9999 -9999 -9999 -9999 -9999 -9999 -9999 -9999 -9999 -9999 -9999 -9999 -9999 -9999 39.02 36.87 29.27 38.43 96.32 180.83 235.73 351.46 424.48 708.22 991.52 1024.82 983.97 747.54 439.55 324.94 552.8 677.45 725.5 686.52 916.75 1087.51 1190.4 1173.31 1101.88 1096.55 1101.7 1082.23 1158.28 1159.73 1071.22 1037.7 1019.13 1027.65 1037.68 1018.55 971.98 981.38 1084 1234.9 1245.23 1202.27 1151.55 1139.47 884.28 595.6 435.17 298.73 228.97 154.29 95.01 42.64 -10.84 -43.92 -56.26 -37.51 28.29 61.5 33.96 13.98 -11.72 34.69 80.7 71.67 25.27 23.89 45.25 120.48 120.5 77.61 35.17 11.25 -9999 17.58 -9999 -9999 -9999 -9999 -9999 -9999 -9999 -9999 -9999 -9999 -9999 -9999 -9999 -9999 -9999 -9999 -9999 -9999 -9999 -9999 -9999 -9999 -9999 -9999 -9999 -9999 -9999 -9999 -9999 -9999 -9999 -9999 -9999 -9999 -9999 -9999 -9999 -9999 -9999 -9999 32.22 67.85 46.53 25.96 -2.3 21.99 37.7 40.07 39.92 56.77 62.61 66.34 76.38 83.01 89.35 93.85 89.58 88.71 97.16 146.08 210.81 161.01 152.96 141.92 141.03 148.64 156.77 151.75 151.12 146.22 151.5 152 151.36 144.79 155.7 258.46 291.93 150.55 178.86 233.29 244.64 256.33 288.11 350.73 411.62 448.79 346.16 396.03 364.93 228.93 207.28 142.47 73.32 121.21 266.04 322.1 301.41 365.4 371.27 379.43 421.41 384.87 253.92 267.41 223.33 206.95 258.53 291.24 250.4 307.71 365.62 412.54 455.74 507.04 497.67 542.99 563.45 655.97 712.7 651.72 582.85 528.76 502.08 539.68 624.29 740.05 759.22 853.71 873.66 904.71 815.09 809.85 674.74 275.25 137.26 84.11 360.06 807.71 1411.2 1248.01 771.2 768.81 487.67 216.5 121.53 56.18 -9999 -9999 -9999 -9999 -9999 22.48 -9999 -9999 84.52 52.42 250.96 425.35 634.27 755.99 529.17 402.02 683.51 791.26 146.18 375.29 509.9 511.44 352.38 570.36 1033.65 313.35 568.12 393.17 254.34 241.13 306.48 535.74 739.05 1099.38 1141.99 1285.76 1272.56 1194.9 1162.42 1132.24 1059.28 968.48 876.03 785.13 744.85 682.13 631.68 562.68 522.84 487.76 442.04 380.48 313.64 262.96 213.63 163.95 147.38 150.65 151.12 142.98 130.59 119.1 119.24 -9999 -9999
-9999 -9999 -9999 -9999 -9999 -9999 -9999 -9999 -9999 -9999 -9999 -9999 -9999 -9999 -9999 -9999 -9999 -9999 -9999 -9999 -9999 -9999 -9999 -9999 -9999 -9999 -9999 -9999 -9999 -9999 -9999 -9999 -9999 -9999 -9999 -9999 -9999 -9999 -9999 -9999 -9999 -9999 -9999 -9999 -9999 -9999 -9999 -9999 -9999 -9999 -9999 -9999 -9999 -9999 -9999 -9999 -9999 -9999 -9999 -9999 -9999 -9999 -9999 -9999 -9999 -9999 -9999 -9999 -9999 -9999 -9999 -9999 -9999 -9999 -9999 -9999 -9999 -9999 -9999 -9999 -9999 -9999 -9999 -9999 -9999 -9999 -9999 -9999 -9999 -9999 -9999 -9999 -9999 -9999 -9999 -9999 -9999 -9999 -9999 -9999 -9999 -9999 -9999 -9999 -9999 -9999 -9999 -9999 -9999 -9999 -9999 -9999 -9999 -9999 -9999 -9999 -9999 -9999 -9999 -9999 -9999 -9999 -9999 -9999 -9999 -9999 -9999 -9999 -9999 -9999 -9999 -9999 -9999 -9999 -9999 -9999 -9999 -9999 -9999 -9999 -9999 -9999 -9999 -9999 -9999 -9999 -9999 -9999 -9999 -9999 -9999 -9999 -9999 -9999 -9999 -9999 -9999 -9999 -9999 -9999 -9999 -9999 -9999 -9999 -9999 -9999 -9999 -9999 -9999 -9999 -9999 -9999 -9999 -9999 -9999 -9999 -9999 -9999 -9999 -9999 -9999 -9999 -9999 -9999 -9999 -9999 -9999 -9999 -9999 116.09 171.41 207.02 169.26 261.76 358.07 265.85 379.37 301.35 374.01 519.16 662.23 626.55 576.32 384.39 399.76 561.38 926.27 1009.18 1088.26 1077.21 1214.31 1227.57 1163.4 1189.61 1173.03 1175.36 1134.1 1084.36 1063.25 1039.57 1003.99 984.06 1026.86 1055.06 1115.81 1138.64 1164.11 1157.15 1171.21 1204.6 1048.65 915.92 965 882.51 594.46 550.37 454.93 346.81 288.48 199.7 112.62 37.7 -13.56 -24.01 -32.67 64.94 5.65 13.68 23.35 24.08 34.09 19.94 13.27 15.11 26.56 80.97 161.12 150.09 286.65 386.61 170.05 78.89 38.47 16.45 12.58 16.6 -9999 -9999 -9999 -9999 -9999 -9999 43.58 62.28 113.54 193.94 244.11 151.06 73.68 61.29 62.3 18.22 12.49 -9999 -9999 -9999 -9999 -9999 -9999 -9999 -9999 -9999 -9999 -9999 -9999 -9999 -9999 -9999 -9999 -9999 -9999 -9999 -9999 6.21 42.84 44.83 42.66 16.25 -13.98 -1.45 7.15 22.94 26.48 54.12 82.38 100.04 109.96 112.83 107.35 108.46 114.88 113.71 138.55 158.49 180.1 152.53 155.47 151.16 153.16 166.96 228.73 199.16 151.87 155.64 155.08 171.28 178.98 176.92 230.18 259.85 249.28 186.69 261.36 377.27 372.5 284.96 207.86 279.9 173.1 167.64 163.94 239.43 241.55 264.37 236.54 173.29 125.1 119.73 170.95 233.86 295.7 337.8 320.69 362.69 357.9 299.84 301.65 296.65 247.18 245.84 350.99 339.39 295.63 391.77 400.41 396.48 454.05 573.37 616.34 608.67 596.47 651.93 652.65 685.34 619.33 560.05 543.73 599.26 679.67 687.65 754.86 844.62 993.65 973.65 969.9 974.95 1027.88 617.72 452.28 139.84 308.64 798.23 1597.89 1309.07 1312.75 1424.53 1189.67 584.2 377.25 185.58 119.95 49.41 22.98 -9999 -9999 76.51 165.82 51.4 -0.95 -32.19 -8.32 18.31 76.72 98.81 59.62 44.6 84.66 113.02 203.53 278.44 421.19 420.91 516.29 288.15 236.89 625.29 728.49 625.96 438.99 479.91 847.12 1002.02 1287.77 1459.02 1427.1 1361.85 1276.28 1261.13 1216.75 1127.98 989.38 892.94 835.51 809.12 774.34 692.98 615.35 550.16 511.6 482.41 425.18 355.95 308.36 265.34 218.71 167.62 153.89 153.34 146.23 129.97 128.14 121.17 95.21 -9999 -9999
-9999 -9999 -9999 -9999 -9999 -9999 -9999 -9999 -9999 -9999 -9999 -9999 -9999 -9999 -9999 -9999 -9999 -9999 -9999 -9999 -9999 -9999 -9999 -9999 -9999 -9999 -9999 -9999 -9999 -9999 -9999 -9999 -9999 -9999 -9999 -9999 -9999 -9999 -9999 -9999 -9999 -9999 -9999 -9999 -9999 -9999 -9999 -9999 -9999 -9999 -9999 -9999 -9999 -9999 -9999 -9999 -9999 -9999 -9999 -9999 -9999 -9999 -9999 -9999 -9999 -9999 -9999 -9999 -9999 -9999 -9999 -9999 -9999 -9999 -9999 -9999 -9999 -9999 -9999 -9999 -9999 -9999 -9999 -9999 -9999 -9999 -9999 -9999 -9999 -9999 -9999 -9999 -9999 -9999 -9999 -9999 -9999 -9999 -9999 -9999 -9999 -9999 -9999 -9999 -9999 -9999 -9999 -9999 -9999 -9999 -9999 -9999 -9999 -9999 -9999 -9999 -9999 -9999 -9999 -9999 -9999 -9999 -9999 -9999 -9999 -9999 -9999 -9999 -9999 -9999 -9999 -9999 -9999 -9999 -9999 -9999 -9999 -9999 -9999 -9999 -9999 -9999 -9999 -9999 -9999 -9999 -9999 -9999 -9999 -9999 -9999 -9999 -9999 -9999 -9999 -9999 -9999 -9999 -9999 -9999 -9999 -9999 -9999 -9999 -9999 -9999 -9999 -9999 -9999 -9999 -9999 -9999 -9999 -9999 -9999 -9999 -9999 -9999 -9999 -9999 -9999 -9999 -9999 -9999 -9999 -9999 83.11 146.5 234.49 258.28 300.73 392.62 330.7 444.35 552.61 592.34 581.79 561.74 576.24 947.15 1266.67 815.95 647.75 538.57 767.42 965.23 1052.42 1042.11 953.47 1030 1142.43 1223.45 1256.79 1213.53 1143.52 1080.08 1032.96 1008.87 1002.39 991.23 1012.43 1050.02 1111.38 1176.4 1271.71 1328.97 1373.5 1183.72 1112.18 1049.06 853.96 795 676.69 618.36 596.93 563.08 464.05 358.82 295.07 236.92 150.76 79.07 21.59 27.39 60.1 77.59 25.15 32.89 41.57 32.39 22.38 22.03 16.69 18.32 34.06 66.56 93.56 149.91 234.61 375.98 408.74 182.02 98.53 51.21 42.4 22.72 10.7 22.26 25.29 31.65 51.23 89.39 108.89 154.45 328.88 387.17 304.4 183.14 149.72 117.27 77.95 23.67 9.53 -9999 -9999 -9999 -9999 -9999 -9999 -9999 -9999 -9999 -9999 -9999 -9999 -9999 -9999 -9999 -9999 -9999 -9999 -9999 11.78 26.46 31.31 31.36 28.39 12.53 -3.71 -4.49 2.82 13.42 26.24 52.41 89.81 104.23 113.1 132.48 144.79 144.26 150.84 151.07 150.8 152 152 151.16 153.98 157.87 158.49 203.45 282.28 284.17 253.68 228.44 267.76 295.75 304.03 299.94 282.46 270.07 232.93 238.18 215.38 173.86 201.62 177.37 166.21 210.31 253.86 229.95 281.83 316.11 288.55 309.61 256.17 196.4 179.1 157.81 118.56 188.15 295.64 282.25 283.68 232.08 237.45 294.55 292.78 222.77 226.64 305.57 403.03 350.55 283.33 341.05 330.55 350.88 450.98 526.14 559.45 536.09 555.38 555.23 533.99 571.84 561.45 570.04 618.63 617.12 684.69 633.97 722.51 823.27 859.15 918.22 901.87 863.42 1078.03 879.1 420.73 190.04 234.52 578.94 965.11 919.79 980.47 1771.47 1765.16 1065.59 872.3 640 263.87 198.74 337.58 352.62 438.48 657.69 313.1 172.4 1.97 -121.68 -105.05 4.64 73.85 -67.19 122.88 91.25 55.07 214.71 404.84 584.71 378.68 538.38 561.94 339.01 337.36 636.02 822.97 651.22 744.83 1171.82 1345.85 1337.87 1560.97 1548.29 1441.95 1408.73 1357.35 1251.46 1156.52 1053.58 1002 936.12 910.82 827.44 774.03 722.43 618.27 563.37 501.51 453.04 399.41 339.79 311.49 288.96 234.64 188.23 159.58 149.93 141.48 143.44 163.54 128.91 -9999 -9999 -9999
-9999 -9999 -9999 -9999 -9999 -9999 -9999 -9999 -9999 -9999 -9999 -9999 -9999 -9999 -9999 -9999 -9999 -9999 -9999 -9999 -9999 -9999 -9999 -9999 -9999 -9999 -9999 -9999 -9999 -9999 -9999 -9999 -9999 -9999 -9999 -9999 -9999 -9999 -9999 -9999 -9999 -9999 -9999 -9999 -9999 -9999 -9999 -9999 -9999 -9999 -9999 -9999 -9999 -9999 -9999 -9999 -9999 -9999 -9999 -9999 -9999 -9999 -9999 -9999 -9999 -9999 -9999 -9999 -9999 -9999 -9999 -9999 -9999 -9999 -9999 -9999 -9999 -9999 -9999 -9999 -9999 -9999 -9999 -9999 -9999 -9999 -9999 -9999 -9999 -9999 -9999 -9999 -9999 -9999 -9999 -9999 -9999 -9999 -9999 -9999 -9999 -9999 -9999 -9999 -9999 -9999 -9999 -9999 -9999 -9999 -9999 -9999 -9999 -9999 -9999 -9999 -9999 -9999 -9999 -9999 -9999 -9999 -9999 -9999 -9999 -9999 -9999 -9999 -9999 -9999 -9999 -9999 -9999 -9999 -9999 -9999 -9999 -9999 -9999 -9999 -9999 -9999 -9999 -9999 -9999 -9999 -9999 -9999 -9999 -9999 -9999 -9999 -9999 -9999 -9999 -9999 -9999 -9999 -9999 -9999 -9999 -9999 -9999 -9999 -9999 -9999 -9999 -9999 -9999 -9999 -9999 -9999 -9999 -9999 -9999 -9999 -9999 -9999 -9999 -9999 -9999 -9999 73.09 116.62 160.78 178.59 214.42 264.91 392.24 473.28 524.48 533.21 761.2 838.94 977.01 1228.41 1463.23 1352.26 995.08 1333.13 1855.56 1454.57 930.23 955.09 1393.72 1381.6 1234.5 1099.07 1030.3 1043.42 1079.4 1118.75 1126.29 1104.18 1074.55 1040.6 1031.36 1024.81 1082.95 1093.1 1105.11 1153.31 1285.57 1305.77 1383.17 1356.74 1259.13 987.65 890.17 812.69 744.77 690.81 680.24 711.59 669.05 586.15 473.17 376.86 307.01 253.97 197.28 142.51 114.36 105.5 47.57 44.7 50.55 62.42 59.6 50.48 40.69 40.7 39.78 51.8 76.57 110.25 125 173.64 231.24 329.84 431.12 342.93 216.7 106.71 90.57 59.54 45.35 48.09 70.34 95.89 126.27 143.69 262.17 378.46 505.58 414.04 323.93 251.05 161.89 109.09 57.72 39.68 23.57 16.36 -9999 -9999 -9999 -9999 -9999 67.8 65.45 49.28 59.77 68.64 68.4 85.43 47.66 -9999 -9999 -9999 -9999 32.78 17.11 8.58 19.99 22.27 23.33 20.36 23.97 26.06 21.86 31.51 35.42 40.81 57.84 85.59 135.76 151.85 151.74 152.43 152 151.58 150.2 149.7 148.9 150.64 161.66 166.16 165.54 178.02 199.69 185.46 167.63 256.01 246.89 250.45 300.88 303.71 304.06 289.94 288.33 276.36 296.32 244.63 211.43 251.24 234.58 271.89 332.42 314.26 346.27 324.14 310.61 323.8 294.95 228.15 183.13 151.86 159.89 202.56 234.75 237.53 202.58 181.38 245.54 267.38 211.63 271.69 270.72 326.05 457.57 426.76 324.52 279.31 275.17 319.81 371.52 380.08 428.47 455.96 519.81 474.91 490.5 490.69 480.56 565.55 540.93 558.62 545.78 605.71 681.93 824.26 737.17 736.99 729.54 792.38 1009.82 732.29 274.52 261.48 202.57 393.46 631.06 655.03 893.9 1050.01 1558.93 1521.04 1367.26 1753.86 1341.7 1055 1291.26 1782.19 1807.06 1768.3 1162.95 732.77 666.37 155.53 -65.61 -22.27 96.17 -42.54 120.7 27.49 144.01 453.84 456.61 467.77 516.67 430.06 343.48 335.9 417.73 550.48 707.68 824.62 1058.26 1373.55 1423.11 1576.38 1592.26 1562.09 1554.84 1416.28 1303.42 1230.42 1187.6 1131.18 1024.87 960.38 909.99 897.87 812.16 657.13 611.56 535.8 476.23 423.18 373.93 341.43 327.14 311.64 269.78 212.27 166.6 162.16 167.23 171.94 187.76 114.85 -9999 -9999 -9999
-9999 -9999 -9999 -9999 -9999 -9999 -9999 -9999 -9999 -9999 -9999 -9999 -9999 -9999 -9999 -9999 -9999 -9999 -9999 -9999 -9999 -9999 -9999 -9999 -9999 -9999 -9999 -9999 -9999 -9999 -9999 -9999 -9999 -9999 -9999 -9999 -9999 -9999 -9999 -9999 -9999 -9999 -9999 -9999 -9999 -9999 -9999 -9999 -9999 -9999 -9999 -9999 -9999 -9999 -9999 -9999 -9999 -9999 -9999 -9999 -9999 -9999 -9999 -9999 -9999 -9999 -9999 -9999 -9999 -9999 -9999 -9999 -9999 -9999 -9999 -9999 -9999 -9999 -9999 -9999 -9999 -9999 -9999 -9999 -9999 -9999 -9999 -9999 -9999 -9999 -9999 -9999 -9999 -9999 -9999 -9999 -9999 -9999 -9999 -9999 -9999 -9999 -9999 -9999 -9999 -9999 -9999 -9999 -9999 -9999 -9999 -9999 -9999 -9999 -9999 -9999 -9999 -9999 -9999 -9999 -9999 -9999 -9999 -9999 -9999 -9999 -9999 -9999 -9999 -9999 -9999 -9999 -9999 -9999 -9999 -9999 -9999 -9999 -9999 -9999 -9999 -9999 -9999 -9999 -9999 -9999 -9999 -9999 -9999 -9999 -9999 -9999 -9999 -9999 -9999 -9999 -9999 -9999 -9999 -9999 -9999 -9999 -9999 -9999 -9999 -9999 -9999 -9999 -9999 -9999 -9999 -9999 -9999 -9999 -9999 -9999 -9999 -9999 -9999 -9999 83.86 105.16 138.34 166.65 272.05 302.58 414.61 487.57 615.41 749.35 688.36 899.79 1069.74 1064.42 1023.83 1579.31 1762.36 1746.95 1555.39 1711.19 2152.83 1593.49 827.35 1113.84 1315.74 1251.87 1156.01 1113.59 1096.65 1099.97 1068 1057.37 1067.84 1061.29 1083.49 1088.96 1120.97 1095.91 1163.56 1242.45 1281.77 1353.15 1405.7 1424.1 1273.56 1127.59 993.4 925.51 848.26 828.75 825.4 790.8 765.56 721.56 647.95 579.78 477.01 382.7 307.39 269.68 233.08 199.41 183.55 148.99 68.51 102.32 93.51 85.24 81.46 69.58 64.94 77.49 94.27 109.64 121.96 136.26 160.73 201.64 258.36 369.05 423.38 288.24 195.73 144.14 143.43 115.78 102.29 96.11 106.66 129.21 258.33 481.04 687.9 738.13 738.78 498.23 342.74 245.73 164.66 97.78 84.36 96.69 54.53 39.33 33.88 26.25 36.3 65.96 85.62 100.56 108.54 131.74 148.47 137.75 144.2 123.52 91.79 81.07 57.97 29.21 30.71 43.41 29.67 -22.1 2.05 28.05 30.38 42.56 53.41 64.07 62.71 56.61 47.08 38.13 43.11 54.46 120.65 151.59 151.92 151.98 150.7 130.28 122.54 139.82 158.4 171.21 178.34 172.77 171 172.76 163.97 154.33 153.31 170.06 188.78 256.06 299.31 304 304.16 308.3 302.2 304 304 304.01 311.47 334.44 319.73 325 342.81 373.94 384.42 349.45 369.01 355.51 298.3 263.63 229.09 163.18 155.02 144.25 181.1 172.88 174.89 192.19 224.24 200.56 184.19 294.14 364.94 437.69 523.41 472 430.93 399.28 320.05 296.36 348.16 375.48 394.02 399.77 478.14 485.71 436.32 430.31 462.91 501.7 483.06 512.58 505.1 588.19 667.61 662.72 644.06 631.18 691.22 748.27 680.12 610.69 402.79 347.68 337.87 418.35 602.89 728.99 915.67 1312.79 1531.34 1496.99 1540.27 1781.69 2215.6 2151.83 1874.77 1939.1 2211.42 2307.37 2115.61 1782.47 1055.66 578.4 263.21 79.66 71.49 285.61 218.79 346.85 591.07 607.43 571.76 454.65 570.09 688.39 523.18 456.27 461.78 695.87 837.84 949.28 1114.92 1234.73 1636.91 1747.27 1761.5 1660.99 1497.8 1393.46 1308.08 1206.35 1123.27 973.83 992.27 976.16 966.46 892.68 628.05 595.14 576.87 531.97 491.51 411.63 348.59 337.67 375.05 378.31 334.04 267.24 220.16 188.23 184.16 256.82 171.72 118.22 -9999 -9999 -9999
-9999 -9999 -9999 -9999 -9999 -9999 -9999 -9999 -9999 -9999 -9999 -9999 -9999 -9999 -9999 -9999 -9999 -9999 -9999 -9999 -9999 -9999 -9999 -9999 -9999 -9999 -9999 -9999 -9999 -9999 -9999 -9999 -9999 -9999 -9999 -9999 -9999 -9999 -9999 -9999 -9999 -9999 -9999 -9999 -9999 -9999 -9999 -9999 -9999 -9999 -9999 -9999 -9999 -9999 -9999 -9999 -9999 -9999 -9999 -9999 -9999 -9999 -9999 -9999 -9999 -9999 -9999 -9999 -9999 -9999 -9999 -9999 -9999 -9999 -9999 -9999 -9999 -9999 -9999 -9999 -9999 -9999 -9999 -9999 -9999 -9999 -9999 -9999 -9999 -9999 -9999 -9999 -9999 -9999 -9999 -9999 -9999 -9999 -9999 -9999 -9999 -9999 -9999 -9999 -9999 -9999 -9999 -9999 -9999 -9999 -9999 -9999 -9999 -9999 -9999 -9999 -9999 -9999 -9999 -9999 -9999 -9999 -9999 -9999 -9999 -9999 -9999 -9999 -9999 -9999 -9999 -9999 -9999 -9999 -9999 -9999 -9999 -9999 -9999 -9999 -9999 -9999 -9999 -9999 -9999 -9999 -9999 -9999 -9999 -9999 -9999 -9999 -9999 -9999 -9999 -9999 -9999 -9999 -9999 -9999 -9999 -9999 -9999 -9999 -9999 -9999 -9999 -9999 -9999 -9999 -9999 -9999 -9999 -9999 -9999 -9999 -9999 -9999 101.12 119.88 142.25 165.02 184.42 230.06 341.69 491.79 610.58 720.25 753.68 828.49 816.39 805.48 1081.54 1089.7 1402.99 1930.33 2056.27 1917.58 1662.7 1544.04 1357.44 880.89 1012.08 1342.75 1415.36 1316.25 1241.25 1183.1 1189.96 1175.65 1158.83 1145.87 1139.34 1170.29 1162.45 1137.83 1154.26 1204.97 1242.46 1273.94 1299.26 1253.08 1211.75 1177.59 1089.47 928.75 883.36 888.68 860.61 835.62 798.75 769.79 733.76 668 599.38 538.41 449.34 365.22 308.41 265.43 230.1 194.06 177.41 133.65 77.4 116.75 99.36 100.92 112.56 104.62 106.14 118.17 147.66 162.98 154.13 163.78 193.92 215.02 288.24 386.29 450.64 316.26 227.38 187.39 176.16 159.51 143.32 174.28 290.98 465.05 634.87 674.67 750.85 709.16 611.36 433.23 320.12 236.1 189.98 219.55 189.57 140.88 103.62 104.03 88.09 76.64 91.68 102.3 121.78 133.85 153.08 172.47 178.04 185.97 193.1 174.64 188.54 181.64 135.74 132.13 142.83 141.16 108.45 79.04 69.25 47.37 67.51 76.3 81.2 88.45 86.79 84.14 70.62 59.15 61.18 62.53 96.22 129.52 148.1 138.74 124.81 116.43 135.36 166.57 171.43 182.31 193.65 197.48 205.69 214.79 191.51 153.24 162.53 158.07 169.53 253.81 297.89 304 304 304 304 304 304.01 304.12 308.46 351.75 360.33 346.21 350.91 378.19 327.6 354.95 370.21 329.67 275.35 226.08 204.53 163.51 163.87 174.42 192.49 189.38 195.15 253.81 250.79 205.44 229.89 297.35 408.9 507.73 582.94 588.3 544.3 474.95 352.32 313.42 340.08 352.16 362.59 367.22 413.14 417.75 414.27 417.19 426.23 447.93 439.59 457.5 519.44 565.48 587.5 578.66 575.27 604.35 625.72 653.44 536.14 483.76 497.35 627.8 471.34 352.64 663.23 832 1131.32 1320.85 1392.12 1050.59 992.05 1332.54 2008.09 1972.11 1689.56 1550.33 1921.55 2453.63 2486.47 2628.27 1783.5 1067.4 797.76 583.65 366.13 643.51 440.34 658.31 620.56 430.81 381.67 369.92 379.19 409.79 322.57 488.51 764.45 748.16 766.12 861.78 1152.29 1571.02 1817.63 1697.61 1566.4 1458.18 1374.92 1259.49 1162.23 1048.71 920.19 872.89 899.42 786.42 774.28 618.06 514.99 524.15 448.07 458.16 429 381.56 335.65 324.51 398.96 365.35 374.42 317.57 275.16 197.85 191.93 205.58 148.26 -9999 -9999 -9999 -9999
-9999 -9999 -9999 -9999 -9999 -9999 -9999 -9999 -9999 -9999 -9999 -9999 -9999 -9999 -9999 -9999 -9999 -9999 -9999 -9999 -9999 -9999 -9999 -9999 -9999 -9999 -9999 -9999 -9999 -9999 -9999 -9999 -9999 -9999 -9999 -9999 -9999 -9999 -9999 -9999 -9999 -9999 -9999 -9999 -9999 -9999 -9999 -9999 -9999 -9999 -9999 -9999 -9999 -9999 -9999 -9999 -9999 -9999 -9999 -9999 -9999 -9999 -9999 -9999 -9999 -9999 -9999 -9999 -9999 -9999 -9999 -9999 -9999 -9999 -9999 -9999 -9999 -9999 -9999 -9999 -9999 -9999 -9999 -9999 -9999 -9999 -9999 -9999 -9999 -9999 -9999 -9999 -9999 -9999 -9999 -9999 -9999 -9999 -9999 -9999 -9999 -9999 -9999 -9999 -9999 -9999 -9999 -9999 -9999 -9999 -9999 -9999 -9999 -9999 -9999 -9999 -9999 -9999 -9999 -9999 -9999 -9999 -9999 -9999 -9999 -9999 -9999 -9999 -9999 -9999 -9999 -9999 -9999 -9999 -9999 -9999 -9999 -9999 -9999 -9999 -9999 -9999 -9999 -9999 -9999 -9999 -9999 -9999 -9999 -9999 -9999 -9999 -9999 -9999 -9999 -9999 -9999 -9999 -9999 -9999 -9999 -9999 -9999 -9999 -9999 -9999 -9999 -9999 -9999 -9999 -9999 -9999 -9999 -9999 -9999 -9999 -9999 -9999 124.26 154.62 192.9 243.01 350.97 397.18 317.98 407.62 510.74 581.65 589 616.99 666.01 723.09 819.83 991.3 1469.82 1929.91 1645.56 1461.92 1482.76 1187.54 976.62 1011.33 1184.52 1519.64 1571.06 1489.75 1347.34 1317.67 1361.64 1319.58 1252.17 1240.86 1242.49 1293.63 1246.05 1249.52 1225.68 1213.85 1243.86 1129.91 1135.76 1033.39 957.21 914.32 897.28 846.17 802.8 816 797.2 761.01 731.83 747.55 709.52 597 534.75 463.26 418.52 341.96 286.01 253.03 217.09 179.9 150.99 134.81 141.36 132.57 129.39 132.85 137.37 129.32 134.5 154.74 192.01 214.39 220.53 205.42 242.62 262.96 298.62 314 375.89 459.8 403.23 315.63 334.79 359.77 462.25 545.44 620.06 638.15 599.66 558.04 578.33 547.44 459.89 324.58 242.53 262.67 302.22 243.47 169.99 157.65 135.62 122.69 122.05 154.54 172.85 174.93 204.74 207.5 206.33 209.13 213.78 223.31 212.92 217.54 277.82 276.74 234.81 190.27 166.49 138.69 115.09 151.04 142.71 62.16 51.13 104.3 101.96 102.58 102.08 106.47 97.48 88.76 81.94 78.49 67.95 79.4 104.1 118.48 126.92 135.5 163.95 181.75 188.39 201.2 213.29 229.38 228.19 219.73 203.43 153.26 205.6 177.38 200.65 287.58 303.77 304 304 303.99 304.31 328.94 314.53 342.68 399.31 415.17 403.78 371.91 337.94 296.46 300.33 330.21 326.44 308.95 270.42 219.55 184.45 191.39 195.98 191.63 184.83 177.04 217.02 276.47 243.4 212.11 316.93 395.14 428.22 448.74 498.2 624.68 518.29 431.02 371.36 364.36 328.4 339.18 355.17 369.93 377.77 390.09 396.42 395.35 406.77 433.72 420.34 452.67 495.5 522.04 523.1 534.72 539.04 568.91 641.4 636.61 523.5 411.77 496.01 674.93 559.12 374.66 425.73 611.93 622.01 779.61 890.97 771.69 882.59 1194.04 1780 1810.68 1707.29 1747.09 2136.66 1990.5 2126.77 2140.11 2129.31 1426.73 1209.75 792.5 341.5 511.08 512.82 532.89 466.96 415.58 431.47 597.22 423.99 457.88 606.27 624.46 700.65 681.51 751.56 989.64 1463.77 1913.11 1665.63 1570.72 1437.97 1309.66 1207.45 1103.3 974.4 913.85 850.91 812.34 852.61 803.43 636.24 495.69 455.34 428.88 375.91 340.43 317.53 308.51 247.88 237.1 262.3 285.32 229.49 237.95 252.23 210.43 183.28 174.64 140.13 -9999 -9999 -9999 -9999
-9999 -9999 -9999 -9999 -9999 -9999 -9999 -9999 -9999 -9999 -9999 -9999 -9999 -9999 -9999 -9999 -9999 -9999 -9999 -9999 -9999 -9999 -9999 -9999 -9999 -9999 -9999 -9999 -9999 -9999 -9999 -9999 -9999 -9999 -9999 -9999 -9999 -9999 -9999 -9999 -9999 -9999 -9999 -9999 -9999 -9999 -9999 -9999 -9999 -9999 -9999 -9999 -9999 -9999 -9999 -9999 -9999 -9999 -9999 -9999 -9999 -9999 -9999 -9999 -9999 -9999 -9999 -9999 -9999 -9999 -9999 -9999 -9999 -9999 -9999 -9999 -9999 -9999 -9999 -9999 -9999 -9999 -9999 -9999 -9999 -9999 -9999 -9999 -9999 -9999 -9999 -9999 -9999 -9999 -9999 -9999 -9999 -9999 -9999 -9999 -9999 -9999 -9999 -9999 -9999 -9999 -9999 -9999 -9999 -9999 -9999 -9999 -9999 -9999 -9999 -9999 -9999 -9999 -9999 -9999 -9999 -9999 -9999 -9999 -9999 -9999 -9999 -9999 -9999 -9999 -9999 -9999 -9999 -9999 -9999 -9999 -9999 -9999 -9999 -9999 -9999 -9999 -9999 -9999 -9999 -9999 -9999 -9999 -9999 -9999 -9999 -9999 -9999 -9999 -9999 -9999 -9999 -9999 -9999 -9999 -9999 -9999 -9999 -9999 -9999 -9999 -9999 -9999 -9999 -9999 -9999 -9999 -9999 -9999 -9999 -9999 -9999 92.87 247.87 349.31 368.91 408.6 435.91 473.52 422.39 346.76 339.28 381.93 405 440.11 498.98 876.71 1499.01 1784.04 1875.23 1747.84 1713.52 1670.39 1526.56 1402.38 1342.47 1396.46 1557.76 1551.54 1454.47 1368.1 1314.39 1461.56 1394.64 1307.25 1244.6 1340.55 1374.53 1416.02 1393.7 1303.54 1188.41 1201.86 1069.79 947.67 918.35 850.36 810.7 764.05 777.84 763.33 744.13 736.57 729.49 685.72 721.61 726.05 663.14 558.91 466.42 405.63 355.87 309.38 274.81 241.48 202.19 174.34 155.09 174.17 216.82 222.87 192.12 151.46 133.02 134.4 149.3 171.06 233.94 274.1 286.56 267.64 233.17 247.36 243.1 292.22 331.96 382.69 428.92 504.47 578.88 618.91 600.95 606.67 599.79 607.72 605.5 543.72 526.76 536.93 484.59 379.95 272.14 275 235.6 238.58 211.15 197.91 152.04 157.89 121.62 205.48 240.27 230.94 244.05 289.39 267.82 253.98 246.9 236.91 286.64 282.34 293.8 324.84 280.24 211.02 158.61 68.39 80.78 138.49 149.79 163.54 143.35 198.95 170.29 133.53 117.74 123.82 115.65 109.94 98.85 87.56 75.96 75.27 100.42 126.61 144.7 164.96 181.58 203.11 232.2 240.78 249.35 239.83 228.14 226.79 241.62 183.61 205.52 275.37 273.42 288.12 303.72 304 304.5 307.2 325.03 401.45 437.33 465.45 449.96 431.34 410.54 373.79 325.77 306.86 299.46 292.94 298.25 289.17 253.89 224.19 209.33 205.9 199.04 170.73 183.23 201.8 232.92 280.75 255.14 211.49 314.07 322.69 356.26 413.52 469.04 591.2 536.16 482.87 456.5 393.97 338.3 347.91 352.29 349.32 359.24 352.93 385.29 374.92 387.53 409.43 431.83 437.53 460.88 481.16 480.4 465.06 528.71 548.74 540.45 582.26 500.5 398.09 456.41 587.24 587.7 456.04 441.98 463.53 548.34 625.95 706.11 877.98 1141.19 1435.23 1506.44 1555 1475.65 1953.21 1945.65 1815 2128.54 2081.01 2126.74 1838.79 1463.81 1223.86 569.48 615.57 685.67 667.12 663.88 558.96 460.49 601.56 536.13 714.8 605.83 652.34 664.94 713.22 831.36 1268.34 2058.75 1692 1470.34 1482.51 1369.68 1252.47 1157.52 1052.1 1000.19 1000.46 946.83 916.94 851.13 760.24 580.15 560.15 470.96 373.24 362.75 332.28 308.82 252.53 199.34 204.92 198.34 178.65 166.9 150.43 151.53 184.33 156.61 183.12 91.72 -9999 -9999 -9999 -9999
-9999 -9999 -9999 -9999 -9999 -9999 -9999 -9999 -9999 -9999 -9999 -9999 -9999 -9999 -9999 -9999 -9999 -9999 -9999 -9999 -9999 -9999 -9999 -9999 -9999 -9999 -9999 -9999 -9999 -9999 -9999 -9999 -9999 -9999 -9999 -9999 -9999 -9999 -9999 -9999 -9999 -9999 -9999 -9999 -9999 -9999 -9999 -9999 -9999 -9999 -9999 -9999 -9999 -9999 -9999 -9999 -9999 -9999 -9999 -9999 -9999 -9999 -9999 -9999 -9999 -9999 -9999 -9999 -9999 -9999 -9999 -9999 -9999 -9999 -9999 -9999 -9999 -9999 -9999 -9999 -9999 -9999 -9999 -9999 -9999 -9999 -9999 -9999 -9999 -9999 -9999 -9999 -9999 -9999 -9999 -9999 -9999 -9999 -9999 -9999 -9999 -9999 -9999 -9999 -9999 -9999 -9999 -9999 -9999 -9999 -9999 -9999 -9999 -9999 -9999 -9999 -9999 -9999 -9999 -9999 -9999 -9999 -9999 -9999 -9999 -9999 -9999 -9999 -9999 -9999 -9999 -9999 -9999 -9999 -9999 -9999 -9999 -9999 -9999 -9999 -9999 -9999 -9999 -9999 -9999 -9999 -9999 -9999 -9999 -9999 -9999 -9999 -9999 -9999 -9999 -9999 -9999 -9999 -9999 -9999 -9999 -9999 -9999 -9999 -9999 -9999 -9999 -9999 -9999 -9999 -9999 -9999 -9999 -9999 -9999 -9999 -9999 292.69 247.73 324.98 320.98 452.05 491.24 459.92 481.33 463.28 435.06 482.29 600.44 729.03 1127.69 1584.23 1884.9 1925.34 2286.89 2251.19 2402.14 1983.79 1691.78 1828.03 1833.71 1692.12 1510.45 1278.46 1152.29 1199.79 1194.73 1228.4 1238.77 1277.09 1269.5 1338.41 1284.05 1352.33 1298.92 1183.52 1086.33 896.05 850.25 879.34 866.59 803.62 766.73 765.59 739.1 715.24 663.75 646.93 651.71 633.6 673.16 645.2 608.77 511.75 426.9 373.77 330.86 296.15 269.05 241.47 190.77 163.8 170.66 188.54 226.5 239.22 220.2 152.97 141.92 160.7 182.83 169.21 272.36 303.44 299.65 283.54 282.47 304.64 263.13 266.89 333.9 412.95 444.77 509.08 533.78 559.09 569.8 577.99 570.86 560.99 560.08 555.93 621.19 680.53 626.81 418.4 341.21 252.93 264.28 297.49 287.9 249.31 210.52 155.5 129.72 192.56 267.76 313.04 301.65 302.76 326.93 305.16 292.54 253.3 238.94 297.67 318.61 306.45 303.95 219.24 92.42 94.3 136.95 174.93 248.99 273.11 323.69 287.85 210.05 150.64 134.86 137.98 132.98 123.76 109.52 99.31 87.22 86.57 105.21 142.83 163.76 173.21 189.78 218.35 262.55 281.59 270 255.18 258.46 275.2 272.28 242.62 267.3 300.62 295.17 297.85 303.41 303.97 330.59 463.05 547.76 564.5 542.09 533.82 493.16 424.31 408.13 376.19 325.42 313.92 295.19 278.53 264.87 250.18 233.61 221.99 216.65 213.39 186.2 194.86 235.11 257.07 304.23 330.1 251.38 234.55 314.03 325.15 384.94 467.47 505.91 528.92 475.51 448.47 430.22 359.69 358.52 348.65 335.58 331.71 347.18 339.34 365.65 369.32 389.22 404.81 422.66 421.6 443.23 448.53 443.19 446.63 515.51 461.72 478.19 474.98 458.85 428.49 467.43 546.17 626.98 534.86 542.63 539.05 569.28 669.21 969.98 997.19 1138.92 1307.56 1378.05 1567.14 1956.11 1972.01 1697.85 2013.86 2005.51 2157.21 2347.9 2390.42 1645.41 1266.07 844.35 784.11 818.54 815.67 711.9 554.75 476.29 617.05 495.23 607.57 783.41 712.87 701.9 821.3 1132.24 1947.07 1736.67 1408.34 1420.03 1281.38 1157.98 1104.26 1070.87 978.56 1024.49 997.55 914.85 767 673.83 544.31 515.28 514.18 435.3 393.72 320.26 238.74 261.72 246.22 294.25 275.72 229.27 198.08 200.88 147.98 125.04 121.69 127.85 173.79 20.68 -9999 -9999 -9999 -9999
-9999 -9999 -9999 -9999 -9999 -9999 -9999 -9999 -9999 -9999 -9999 -9999 -9999 -9999 -9999 -9999 -9999 -9999 -9999 -9999 -9999 -9999 -9999 -9999 -9999 -9999 -9999 -9999 -9999 -9999 -9999 -9999 -9999 -9999 -9999 -9999 -9999 -9999 -9999 -9999 -9999 -9999 -9999 -9999 -9999 -9999 -9999 -9999 -9999 -9999 -9999 -9999 -9999 -9999 -9999 -9999 -9999 -9999 -9999 -9999 -9999 -9999 -9999 -9999 -9999 -9999 -9999 -9999 -9999 -9999 -9999 -9999 -9999 -9999 -9999 -9999 -9999 -9999 -9999 -9999 -9999 -9999 -9999 -9999 -9999 -9999 -9999 -9999 -9999 -9999 -9999 -9999 -9999 -9999 -9999 -9999 -9999 -9999 -9999 -9999 -9999 -9999 -9999 -9999 -9999 -9999 -9999 -9999 -9999 -9999 -9999 -9999 -9999 -9999 -9999 -9999 -9999 -9999 -9999 -9999 -9999 -9999 -9999 -9999 -9999 -9999 -9999 -9999 -9999 -9999 -9999 -9999 -9999 -9999 -9999 -9999 -9999 -9999 -9999 -9999 -9999 -9999 -9999 -9999 -9999 -9999 -9999 -9999 -9999 -9999 -9999 -9999 -9999 -9999 -9999 -9999 -9999 -9999 -9999 -9999 -9999 -9999 -9999 -9999 -9999 -9999 -9999 -9999 -9999 -9999 -9999 -9999 -9999 -9999 -9999 113.51 324.37 476.9 398.24 304.86 310.03 351.66 412.19 510.29 601.97 579.75 550.42 842.13 1068.06 1508.64 1603.46 2073.14 2511.95 2571.97 2427.21 2065.8 1708.16 1765.17 1503.98 1529.63 1331.71 1253.66 1215.12 1172.76 1154.43 1087.32 1102.03 1043.75 1121.06 1367.88 1265.89 1185.68 1323.7 1177.03 1122.88 872.4 902.73 839.16 764.15 801.06 790.55 761.31 738.04 705.2 692.25 667.47 616.41 597.81 606.08 593.87 624.61 602.04 558.61 480.46 417.08 340.04 299.37 267.59 265.72 252.49 169.69 159.03 183.3 163.04 173.7 212.1 205.7 152.42 136.32 155.26 163.36 160.23 239.77 276.71 274.96 282.26 264.6 259.52 254.59 295.21 358.24 409.65 455.97 483.98 496.47 547.87 558.84 587.6 607.82 603.02 614.89 592.72 689.7 663.65 607.87 472.51 424.7 401.15 349.22 376.45 340.61 328.38 318.86 279.13 207.57 207.94 221.16 311.52 427.38 440.13 419.55 424.26 356.89 248.15 169.82 179.03 301.59 302.3 282.14 199.73 125.92 64.51 122.29 136.66 129.87 148.55 151.06 218.89 187.57 145.69 152.26 146.42 141.04 133.24 124.43 114.15 100.67 100.37 117.39 147.21 165.61 189.26 204.42 218.34 259.27 295.29 306.16 294.08 339.97 346.7 301.73 292.47 268.46 283.95 303.61 303.14 302.37 330.77 504.18 615.26 650.13 610.84 639.49 621.94 476 419.43 409.38 382.04 380.1 343.87 301.42 272.99 247 234.49 227.4 224.67 224.49 221.29 216.52 249.58 289.06 340.31 378.3 318.89 238.97 288.64 386.58 405.02 471.8 491.43 528.48 450.79 429.98 418.77 382.02 368.56 339.48 329.69 311.21 312.57 320.54 339.52 352.43 374.88 386.4 390.05 389.28 406.2 418.59 426.58 422.58 420.38 461.63 438.65 422.49 418.31 417.85 426.29 454.12 508.24 572.74 641.74 718.49 877.41 821.72 912.19 982.89 1000.29 1206.34 1450.26 1708.12 1882.42 1840.63 1671.85 1618.11 1560.05 1713.72 1781.97 2351.1 2623.57 1606 1474.26 965.72 877.21 807.43 798.71 663.77 565.11 606.47 702 606.2 713.14 769.04 741.84 816.75 1155.73 1833.73 1854.62 1553 1448.3 1254.7 1300.52 1129.31 905.58 871.76 870.4 888.7 868.24 677.76 572.06 478.85 405.79 469.27 503.71 357.66 303.08 249.74 278.63 335.4 361.01 357.4 319.36 281.05 260.11 207.79 137.1 115.99 108 140.85 127.84 15.96 -9999 -9999 -9999 -9999
-9999 -9999 -9999 -9999 -9999 -9999 -9999 -9999 -9999 -9999 -9999 -9999 -9999 -9999 -9999 -9999 -9999 -9999 -9999 -9999 -9999 -9999 -9999 -9999 -9999 -9999 -9999 -9999 -9999 -9999 -9999 -9999 -9999 -9999 -9999 -9999 -9999 -9999 -9999 -9999 -9999 -9999 -9999 -9999 -9999 -9999 -9999 -9999 -9999 -9999 -9999 -9999 -9999 -9999 -9999 -9999 -9999 -9999 -9999 -9999 -9999 -9999 -9999 -9999 -9999 -9999 -9999 -9999 -9999 -9999 -9999 -9999 -9999 -9999 -9999 -9999 -9999 -9999 -9999 -9999 -9999 -9999 -9999 -9999 -9999 -9999 -9999 -9999 -9999 -9999 -9999 -9999 -9999 -9999 -9999 -9999 -9999 -9999 -9999 -9999 -9999 -9999 -9999 -9999 -9999 -9999 -9999 -9999 -9999 -9999 -9999 -9999 -9999 -9999 -9999 -9999 -9999 -9999 -9999 -9999 -9999 -9999 -9999 -9999 -9999 -9999 -9999 -9999 -9999 -9999 -9999 -9999 -9999 -9999 -9999 -9999 -9999 -9999 -9999 -9999 -9999 -9999 -9999 -9999 -9999 -9999 -9999 -9999 -9999 -9999 -9999 -9999 -9999 -9999 -9999 -9999 -9999 -9999 -9999 -9999 -9999 -9999 -9999 -9999 -9999 -9999 -9999 -9999 -9999 -9999 -9999 -9999 -9999 -9999 -9999 352.31 623.08 885.04 760.05 560.07 540.57 582.82 579.54 620.89 768.88 1064.89 1260 1572.3 1882.75 2096.36 2576.91 2644.58 2436.89 2458.56 2027.53 1692.14 1305.58 1267.35 1119.64 1107.88 1117.05 1086.12 1026.27 919.48 886.61 905.74 963.84 1007.84 1189.99 1376.79 1210.88 1028.31 877.43 885.09 818.73 771.06 851.03 823.32 758.87 750.73 733.82 692.96 664.95 641.81 631.21 624.68 593.15 584.53 604.71 608.43 610.63 591.87 541.78 439.89 388.59 339.89 283.75 234.68 192.67 190.2 168.04 155.75 152.03 152.1 169.17 166.69 167.64 154.04 152.79 164.34 166.9 174.66 210.75 271.39 274.11 295.18 288.41 295.49 274.78 299.51 423.61 366.21 409.92 457.08 517.65 588.43 568.54 574.87 599.44 605.08 605.01 606.98 664.57 667.71 605.07 561.13 521.43 483.39 452.3 436.08 372.4 405.41 363.57 404.83 356.89 295.79 250.39 296.11 344.44 551.96 524.94 458.11 326.16 243.51 222.01 133.08 192.56 302.21 290.21 244.98 183.29 155.2 121.26 139.49 145.04 151.34 160 159.92 155.59 165.48 162.72 157.43 155.86 148.02 137.64 127.15 121.28 121.63 115.53 146.49 173.44 197.41 230.1 249.87 288.01 347.06 386.68 319.3 324.08 330.34 304.82 342.69 317.85 333.17 307.6 309.77 361.34 519.2 589.31 611.54 669.48 667 713.36 648.19 480.32 458.93 478.3 452.21 380.28 325.6 291.27 262.47 242.61 233.68 231.73 235.38 244.72 255.32 265.37 300.92 354.28 411.67 370.09 288.39 248.14 305.92 355.22 394.67 445.72 431.74 413.69 397.7 411.13 409.08 370.63 352.62 337.08 314.37 328.38 334.11 330 346.94 360.86 377.58 382.41 379.5 391.04 392.35 394.33 398.41 396.65 402.83 410.52 412.31 404.14 405.47 424.2 429.38 445.71 496.15 655.06 763.02 779.58 827.88 818.35 884.4 961.9 1037.79 1080.97 1173.82 1499.26 1516.34 1527.74 1650.73 1372.18 1420.36 1458.22 1715.18 2009.51 2510.51 1868.45 1584.7 1436.97 1099 954.76 935.15 712.93 596.67 746.47 765.92 659.47 667.98 710.24 796.58 1048.29 1888.24 2208.36 1880.48 1442.46 1203.92 1046.96 1164.13 1026.05 876.71 730.4 875.91 811.06 674.85 619.35 484.69 384.27 323 321.49 305.63 362.94 305.01 343.66 439.44 463.45 460.71 443.46 379.7 323.76 255.66 174.94 119.49 109.6 102.68 143.64 67.2 1 -9999 -9999 -9999 -9999
-9999 -9999 -9999 -9999 -9999 -9999 -9999 -9999 -9999 -9999 -9999 -9999 -9999 -9999 -9999 -9999 -9999 -9999 -9999 -9999 -9999 -9999 -9999 -9999 -9999 -9999 -9999 -9999 -9999 -9999 -9999 -9999 -9999 -9999 -9999 -9999 -9999 -9999 -9999 -9999 -9999 -9999 -9999 -9999 -9999 -9999 -9999 -9999 -9999 -9999 -9999 -9999 -9999 -9999 -9999 -9999 -9999 -9999 -9999 -9999 -9999 -9999 -9999 -9999 -9999 -9999 -9999 -9999 -9999 -9999 -9999 -9999 -9999 -9999 -9999 -9999 -9999 -9999 -9999 -9999 -9999 -9999 -9999 -9999 -9999 -9999 -9999 -9999 -9999 -9999 -9999 -9999 -9999 -9999 -9999 -9999 -9999 -9999 -9999 -9999 -9999 -9999 -9999 -9999 -9999 -9999 -9999 -9999 -9999 -9999 -9999 -9999 -9999 -9999 -9999 -9999 -9999 -9999 -9999 -9999 -9999 -9999 -9999 -9999 -9999 -9999 -9999 -9999 -9999 -9999 -9999 -9999 -9999 -9999 -9999 -9999 -9999 -9999 -9999 -9999 -9999 -9999 -9999 -9999 -9999 -9999 -9999 -9999 -9999 -9999 -9999 -9999 -9999 -9999 -9999 -9999 -9999 -9999 -9999 -9999 -9999 -9999 -9999 -9999 -9999 -9999 -9999 -9999 -9999 -9999 -9999 -9999 -9999 -9999 -9999 451.2 802.65 1285.09 1424.58 1496.87 1570.08 1466.26 1307.08 1802.68 2070.86 2006.63 2242.32 2199.96 2611.5 2640.79 2261.15 2132.55 2089.57 1624.65 1296.84 1078.57 1003.73 976.25 1003.15 966.85 1004.21 1112.99 1075.58 960.02 838.75 756.9 807.37 848.8 898.92 964.11 846.25 775.69 809.48 790.03 744.82 702.32 664.23 663.53 668.96 685.79 685.74 657.42 617.03 591.3 563.72 536.66 515.44 492.33 506.71 555.16 609.21 586.67 509.48 444.42 376.99 315.5 285.92 245.33 211.36 202.96 164 151.71 153.58 152.91 159.42 184.81 163.38 158.33 165.97 169.96 173.24 181.96 247.75 308.4 301.01 306.37 306.69 304 304.32 320.23 355.52 358.01 397.31 471.4 541.79 566.82 588.29 595.65 590.23 597.59 605.42 610.83 643.7 646.75 601.74 585.94 570.56 550.27 517.69 469.11 405.79 435.36 399.08 424.61 425.76 402.33 419.23 303.86 274.3 378.3 386.74 336.17 297.38 256.84 275.97 189.13 132.28 214.77 193.77 193.23 222.84 227.53 187.88 191.69 195.59 192.53 185 171.46 173.05 177.25 172.11 164.19 162.48 157.59 149.36 137.6 135.68 140.61 149.82 158.24 181.96 215.67 246.96 302.7 392.82 406.27 418.84 298.36 294.96 307.4 304.26 316.25 330.11 343.4 338.01 406.67 441.71 578.85 667.51 663.12 697.8 735.28 721.84 641.75 517.22 557.49 503.56 406.33 325.06 287.67 272.16 256.83 246.46 242.88 246.15 255.41 271.42 289.31 297.37 318.07 383.5 380.04 311.75 265.71 289.88 332.55 361.5 390.84 425.54 378.85 361.33 384.72 398.13 392.01 367.16 345.18 321.14 351.28 384.91 382.56 357 354.98 350.88 352.77 366.09 381.06 388.39 380.68 378.96 377.79 384.4 392.3 461.57 473.5 392.16 402.87 424.95 448.81 449.11 482.59 583.04 759.04 703.57 788.19 989.8 933.61 995.28 1025.01 1005.86 1035.05 1219.64 1326.96 2200.97 2978.29 1813.74 1465.16 1834.69 2188.76 2347.39 2611.58 2793.26 2184.65 1784.11 1597.93 1533.54 1276.86 911.61 661.18 585.73 682.29 817.53 801.61 838.14 1028.66 1757.07 2019.7 1699.66 1477.64 1254.4 1231.05 987.16 992.63 893.65 693.55 763.3 906.16 683.23 586.45 498.23 380.43 319.23 277.25 293.35 487.15 396.55 389.79 512.37 589.55 566.88 517.96 442.33 379.72 322.33 249.49 146.74 104.84 100.71 94.78 108.48 26.14 -9999 -9999 -9999 -9999 -9999
-9999 -9999 -9999 -9999 -9999 -9999 -9999 -9999 -9999 -9999 -9999 -9999 -9999 -9999 -9999 -9999 -9999 -9999 -9999 -9999 -9999 -9999 -9999 -9999 -9999 -9999 -9999 -9999 -9999 -9999 -9999 -9999 -9999 -9999 -9999 -9999 -9999 -9999 -9999 -9999 -9999 -9999 -9999 -9999 -9999 -9999 -9999 -9999 -9999 -9999 -9999 -9999 -9999 -9999 -9999 -9999 -9999 -9999 -9999 -9999 -9999 -9999 -9999 -9999 -9999 -9999 -9999 -9999 -9999 -9999 -9999 -9999 -9999 -9999 -9999 -9999 -9999 -9999 -9999 -9999 -9999 -9999 -9999 -9999 -9999 -9999 -9999 -9999 -9999 -9999 -9999 -9999 -9999 -9999 -9999 -9999 -9999 -9999 -9999 -9999 -9999 -9999 -9999 -9999 -9999 -9999 -9999 -9999 -9999 -9999 -9999 -9999 -9999 -9999 -9999 -9999 -9999 -9999 -9999 -9999 -9999 -9999 -9999 -9999 -9999 -9999 -9999 -9999 -9999 -9999 -9999 -9999 -9999 -9999 -9999 -9999 -9999 -9999 -9999 -9999 -9999 -9999 -9999 -9999 -9999 -9999 -9999 -9999 -9999 -9999 -9999 -9999 -9999 -9999 -9999 -9999 -9999 -9999 -9999 -9999 -9999 -9999 -9999 -9999 -9999 -9999 -9999 -9999 -9999 -9999 -9999 -9999 -9999 -9999 -9999 570.51 1130.82 1142.27 1572.73 1985.02 1987.64 1807.1 2206.89 2467.08 2087.09 1641.05 1437.69 1415.12 1449.92 1498.4 1522.2 1657.57 1773.34 1654.18 1238.23 1197.83 1092.49 979.57 813.34 832.39 945.53 1041.36 1042.37 902.26 799.9 739.77 765.54 766.91 936.63 693.37 770.63 743.47 803.91 798.81 718.35 634.16 675.61 665.37 615.67 599.39 633.06 630.92 586.69 515.88 510.27 546.32 568.74 547.67 492.58 445.85 516.99 547.82 514.13 422.9 339.9 297 269.58 237.75 210.29 198.74 173.65 177.72 204.82 218.03 183.63 220.51 183.48 166.24 177.24 179.08 184.84 206.01 274.11 305.39 304.06 303.88 304.55 304 322.64 361.65 374.55 358.02 400.88 465.84 508.59 538.81 587.83 590.35 589.42 615.33 621.59 617.74 624.36 620.18 611.93 609.85 595.54 564.53 537.64 490.43 435.29 440.98 410.63 442.24 471.78 444.56 409.91 317.09 320.03 345.34 400.36 406.62 378.14 334.38 311.54 266.3 257.91 268.73 268.45 257.81 261.54 279.83 262.05 247.61 245.62 230.02 206.33 189.23 193.49 197.02 178.36 165.08 169.94 167.75 159.05 151.08 153.91 164.34 180.25 199.79 207.75 232.21 276.18 343.58 458.39 469.73 381.22 366.24 315.88 321.04 304.27 303.98 317.38 424.22 480.38 579.52 508.55 600.62 710.59 794.13 772.57 740.29 601.08 582.84 603.91 614.53 534.79 449.33 311.81 293.5 283.96 271.07 263.03 262.1 267.3 276.74 290.95 303.85 306.06 324.99 349.54 338.76 294.56 268.45 260.54 333.95 342.23 352.83 330.23 337.68 348.59 350.81 393.04 368.22 362 338.76 320.82 389.02 417.26 455.02 413.04 400.68 395.53 402.36 355.94 374.33 372.03 371.25 367.55 376.27 379.42 376.99 389.94 385.3 396.38 409.3 420.72 432.69 453.3 495.92 544.18 589.94 651.89 826.17 1045.17 852.99 910.55 948.77 875.07 954.21 1200.64 1457.65 3066.41 2971.14 1701.63 1615.2 1897.39 2191.01 2363.52 2910.13 3243 2806.37 2360.86 2211.09 1916.86 1528.41 1185.15 784.63 612.9 560.38 822.39 860.31 1032.47 1537.36 2019.21 1727.76 1384.91 1360.67 1196.15 1100.65 879.51 785.44 779.14 638.96 942.32 929 653.46 537.43 393.86 308.65 310.21 385.26 493.83 529.32 435.3 499.61 647.09 667.44 525.03 444.81 445.69 409.93 330.7 235.5 122.22 94.36 90.39 89.42 91.27 -9999 -9999 -9999 -9999 -9999 -9999
-9999 -9999 -9999 -9999 -9999 -9999 -9999 -9999 -9999 -9999 -9999 -9999 -9999 -9999 -9999 -9999 -9999 -9999 -9999 -9999 -9999 -9999 -9999 -9999 -9999 -9999 -9999 -9999 -9999 -9999 -9999 -9999 -9999 -9999 -9999 -9999 -9999 -9999 -9999 -9999 -9999 -9999 -9999 -9999 -9999 -9999 -9999 -9999 -9999 -9999 -9999 -9999 -9999 -9999 -9999 -9999 -9999 -9999 -9999 -9999 -9999 -9999 -9999 -9999 -9999 -9999 -9999 -9999 -9999 -9999 -9999 -9999 -9999 -9999 -9999 -9999 -9999 -9999 -9999 -9999 -9999 -9999 -9999 -9999 -9999 -9999 -9999 -9999 -9999 -9999 -9999 -9999 -9999 -9999 -9999 -9999 -9999 -9999 -9999 -9999 -9999 -9999 -9999 -9999 -9999 -9999 -9999 -9999 -9999 -9999 -9999 -9999 -9999 -9999 -9999 -9999 -9999 -9999 -9999 -9999 -9999 -9999 -9999 -9999 -9999 -9999 -9999 -9999 -9999 -9999 -9999 -9999 -9999 -9999 -9999 -9999 -9999 -9999 -9999 -9999 -9999 -9999 -9999 -9999 -9999 -9999 -9999 -9999 -9999 -9999 -9999 -9999 -9999 -9999 -9999 -9999 -9999 -9999 -9999 -9999 -9999 -9999 -9999 -9999 -9999 -9999 -9999 -9999 -9999 -9999 -9999 -9999 -9999 -9999 -9999 228.22 294.12 270.34 391.54 537.51 563.99 803.45 1374.66 2004.06 2173.98 1616.65 1428.54 1220.84 1246.49 1411.28 1735.59 1540.5 1537.34 1562.33 1041.61 902.08 772.74 806.11 777.45 738.1 768.16 971.21 962.07 906.62 723.35 679.16 637.86 668.17 743.16 664.69 758.53 744.94 726.66 719.56 695.34 655.7 617.65 613.02 612.33 602.22 607.33 603.85 567.86 510.92 533.35 616.49 652.79 654.15 634.38 495.54 402.71 407.39 426.79 379.79 317.37 287.98 262.23 231.26 199.13 194.21 211.52 226.19 246.41 207.79 167.32 168.02 169.17 169.48 188.51 208.23 242.91 286.38 302.83 305.71 306.77 303.97 312.69 303.98 334.08 389.86 443.46 343.98 394.29 446.26 496.53 538.75 567.36 588.98 611.74 618.55 622.4 622.86 623.47 619.98 614.86 614.77 604.5 577.53 533.68 496.34 468.54 458.02 457.87 465.49 489.66 522.9 551.21 530.79 545.91 555.44 546.1 481.13 419.81 367.39 349.27 365.96 372.97 372.94 379 341.57 276.38 263.38 258.73 261.07 254.87 229.18 222.58 234.52 225.81 209.75 176.01 174.46 184.78 181.97 175.09 170.31 172.05 191.88 212.27 234.11 248.39 253.83 285.13 320.39 378.87 439.57 440.78 449.69 343.48 303.49 304.68 303.97 350.84 457.77 570.31 612.05 588.56 642.92 797.82 921.15 945.96 844.83 653.22 591.7 577.23 564.21 539.22 464.79 389.58 347.24 305.58 289.09 283.64 283.09 286.22 292.55 299.07 303.18 301.46 314.22 357.12 325.11 258.28 228.76 286.58 298.96 300.23 307.91 311.13 323.05 350.2 378.92 384.04 359.7 348.77 323.05 328.46 376.17 419.37 511.35 472.62 452.32 446.64 413.89 375.99 365.34 367.98 369.12 372.11 371.58 377.34 390.18 396.22 390.5 394.64 407.01 424.03 444.36 471.67 508.36 540.45 564.32 622.3 697.33 827.49 804.76 978.81 1327.19 1251.06 1153.47 1298.35 2197.86 2488.22 2006.51 1541.11 1590.9 1973.43 2072.4 1976.91 2825.84 2646.47 2207.9 2575.24 2616.98 1936.1 1636.92 1530.06 1122.69 768.49 629.75 752.89 960.69 1305.51 1891.6 1755.43 1390.6 1272.71 1263.09 1164.44 1178.9 997.85 750.81 640.22 575.64 625.13 677.65 612.45 412.64 335.43 335.45 443.55 507.9 529.43 446.09 439.39 564.72 664.78 572.56 496.95 547.44 519.62 426.02 298.82 184.95 104.23 85.26 86 93.3 -9999 -9999 -9999 -9999 -9999 -9999 -9999
-9999 -9999 -9999 -9999 -9999 -9999 -9999 -9999 -9999 -9999 -9999 -9999 -9999 -9999 -9999 -9999 -9999 -9999 -9999 -9999 -9999 -9999 -9999 -9999 -9999 -9999 -9999 -9999 -9999 -9999 -9999 -9999 -9999 -9999 -9999 -9999 -9999 -9999 -9999 -9999 -9999 -9999 -9999 -9999 -9999 -9999 -9999 -9999 -9999 -9999 -9999 -9999 -9999 -9999 -9999 -9999 -9999 -9999 -9999 -9999 -9999 -9999 -9999 -9999 -9999 -9999 -9999 -9999 -9999 -9999 -9999 -9999 -9999 -9999 -9999 -9999 -9999 -9999 -9999 -9999 -9999 -9999 -9999 -9999 -9999 -9999 -9999 -9999 -9999 -9999 -9999 -9999 -9999 -9999 -9999 -9999 -9999 -9999 -9999 -9999 -9999 -9999 -9999 -9999 -9999 -9999 -9999 -9999 -9999 -9999 -9999 -9999 -9999 -9999 -9999 -9999 -9999 -9999 -9999 -9999 -9999 -9999 -9999 -9999 -9999 -9999 -9999 -9999 -9999 -9999 -9999 -9999 -9999 -9999 -9999 -9999 -9999 -9999 -9999 -9999 -9999 -9999 -9999 -9999 -9999 -9999 -9999 -9999 -9999 -9999 -9999 -9999 -9999 -9999 -9999 -9999 -9999 -9999 -9999 -9999 -9999 -9999 -9999 -9999 -9999 -9999 -9999 -9999 -9999 -9999 -9999 -9999 -9999 -9999 -9999 77.79 162.35 286.29 491.15 813.47 1076.93 1256.64 1270.11 1595.84 1837.68 1560.41 1408.5 1406.22 1352.83 1164.5 1185.2 1184.61 1017.99 876.2 848.26 784.16 675.3 694.18 747.15 730.14 746.46 792.62 847.07 817.66 713.32 596.79 574.28 622.35 672.89 682.19 689.14 697.71 672.87 666.76 633.3 697.3 669.03 610.61 627.04 603.23 604.18 619.73 587.23 525.17 552.65 610.16 629.37 626.19 594.39 482.05 433.4 397.63 355.21 336.54 306.68 283.79 270.97 238.62 194.98 177.24 199.39 233.21 237.66 192.63 183.87 182.13 182.18 187.57 235.48 286.9 282.16 303.43 302.83 304.08 304.06 304 306.36 428.65 470.48 320.31 324.41 334.74 355.39 426.27 530.28 576.05 605.47 615.28 618.4 627.56 629.54 636.58 636.64 634.18 636.22 619.29 612.24 602.06 599.45 545.54 532.54 506.65 490.71 535.04 606.78 689.4 659 593.74 558.36 552.32 547.82 490.24 446.64 458.29 459.45 485.49 481.69 462.82 454.33 400.16 319.41 279.54 270.72 265.67 253.54 229.1 236.35 244.05 235.41 205.7 179.74 194.11 208.01 205.89 197.58 193.98 186.89 208.33 233.78 257.72 280.52 288.25 303.71 330.48 414.79 448.57 488.4 445.71 398.36 324.41 313.41 303.07 341.56 506.81 611.45 721.94 790.99 824.88 918.87 1010.02 1012.37 912.14 668.4 540.21 495.19 468.78 470.5 435.6 392.81 343.46 312.52 305.54 305.55 298.28 300.46 310.32 320.38 311.85 309.32 325.56 340.51 322.03 282.51 242.6 257.64 255.07 270.11 283.21 319.64 359.2 384.43 396.42 358.73 348.14 311.9 317.63 362.17 433.3 517.82 523.78 509.75 499.68 463.78 405.54 382.19 376.47 396.83 386.18 370.14 377.47 388.41 397.91 404.75 407.01 411.14 431.54 441.26 453.45 462.29 482.49 509.04 542.93 596.56 637.06 682.75 873.62 1195.9 1555.41 1948.38 1697.42 1663.14 2458.82 1918.75 1662.29 1701.91 1739 1763.28 2047.96 2373.98 2501.07 2179.95 2730.08 3043.31 2911.29 2762.77 2898.64 1856.83 1235.32 900.48 720.08 836.52 1262.89 1660.61 2041.69 1621.35 1431.16 1329.28 1202.62 1053.61 955.53 881.77 798.03 658.27 540.28 672.11 545.97 499.6 468.93 418.77 467.09 524.69 547.57 460.99 400.06 435.37 545.87 537.66 521.22 594.71 634.88 531.74 349.03 222.9 135.55 84.16 80.83 77.8 -9999 -9999 -9999 -9999 -9999 -9999 -9999 -9999
-9999 -9999 -9999 -9999 -9999 -9999 -9999 -9999 -9999 -9999 -9999 -9999 -9999 -9999 -9999 -9999 -9999 -9999 -9999 -9999 -9999 -9999 -9999 -9999 -9999 -9999 -9999 -9999 -9999 -9999 -9999 -9999 -9999 -9999 -9999 -9999 -9999 -9999 -9999 -9999 -9999 -9999 -9999 -9999 -9999 -9999 -9999 -9999 -9999 -9999 -9999 -9999 -9999 -9999 -9999 -9999 -9999 -9999 -9999 -9999 -9999 -9999 -9999 -9999 -9999 -9999 -9999 -9999 -9999 -9999 -9999 -9999 -9999 -9999 -9999 -9999 -9999 -9999 -9999 -9999 -9999 -9999 -9999 -9999 -9999 -9999 -9999 -9999 -9999 -9999 -9999 -9999 -9999 -9999 -9999 -9999 -9999 -9999 -9999 -9999 -9999 -9999 -9999 -9999 -9999 -9999 -9999 -9999 -9999 -9999 -9999 -9999 -9999 -9999 -9999 -9999 -9999 -9999 -9999 -9999 -9999 -9999 -9999 -9999 -9999 -9999 -9999 -9999 -9999 -9999 -9999 -9999 -9999 -9999 -9999 -9999 -9999 -9999 -9999 -9999 -9999 -9999 -9999 -9999 -9999 -9999 -9999 -9999 -9999 -9999 -9999 -9999 -9999 -9999 -9999 -9999 -9999 -9999 -9999 -9999 -9999 -9999 -9999 -9999 -9999 -9999 -9999 -9999 -9999 -9999 -9999 -9999 -9999 -9999 120.81 150.44 488.85 1068.38 1204.29 1535.95 1629.48 1544.84 1706.88 1771.55 1609.28 1478.39 1219.78 1063.53 1271.6 1369.46 1074.74 890.82 919.42 912.91 804.72 667.55 728.06 722.96 691.62 764.13 792.17 777.81 768.26 750.6 686.44 599.86 555.85 558 592.82 610.95 624.64 701.1 680.59 697.66 625.53 608.94 591.34 583.59 593.27 575.81 546.67 560.68 589.73 570.27 568.24 559.03 569.58 571.15 523.95 436.69 449.55 463.24 381.63 330.78 302.01 281.58 277.45 242.44 194.66 165.09 214.67 274.99 284.07 225.85 207.97 202.35 202.37 216.11 243.65 289.77 303.86 302.61 305.69 303.99 303.5 311.46 363.74 440.27 361.39 361.19 375.44 407.73 410.64 473.03 577.77 597.97 606.96 624.11 626.07 634.85 640.02 649.02 644.43 647.86 639.45 624.05 613.07 608.28 620.82 585.67 578.81 532.14 555.08 548.3 554.88 593.38 564.38 534.87 528.56 525.11 534.95 532.14 546.23 602.23 650.96 703.36 672.68 612.77 537.28 440.71 354.72 318.97 301.02 283.81 254.3 239.64 235.57 227.16 221.2 201.3 190.7 216.08 238.2 238.43 227.45 218.03 206.09 215.95 244.28 267.2 288.56 301.94 301.92 322.97 463.01 449.95 473.35 405.13 387.37 335.2 314.06 298.46 365.85 509.47 578.71 808.16 955.08 950.37 938.39 1031.87 1004.22 846.9 650.59 556.41 486.41 443.71 421.57 396.33 370.68 348.89 338.05 339.82 325.42 314.32 324.34 342.19 351.76 337.83 335.16 345.99 352.1 348.31 308.96 273.88 271.82 239.35 263.9 300.22 304.72 332.29 343.4 357.03 339.01 338.17 296.39 327.58 378.28 436.5 491.99 516.68 513.3 471.56 449.75 389.51 377.09 395.89 417.86 389.73 382.78 389.09 397.58 399.49 403.14 423.02 438.77 452.96 462.61 473.65 475.08 477.95 524.32 560.3 575.65 601.42 760.5 785.84 833.37 1116.53 1408.4 1284.6 1639.86 2630.54 1984.4 1893.3 2133.2 2218.3 2386.27 2417.6 1851.22 2036.82 2598.41 3423.39 2867.93 2526.73 2518.22 2961.64 2279.99 1469.9 927.2 739.98 838.94 1259.13 1910.26 1763.65 1583.95 1344.26 1256.98 1415.96 1175.84 1030.66 909.73 752.97 634.3 570.26 520.29 521.63 643.16 587.63 543.47 583.73 574.95 486.36 410.9 377.96 392.94 447.17 478.94 558.49 612.3 575.86 352.7 235.55 160.66 109.82 80.13 73.11 74.27 -9999 -9999 -9999 -9999 -9999 -9999 -9999 -9999
-9999 -9999 -9999 -9999 -9999 -9999 -9999 -9999 -9999 -9999 -9999 -9999 -9999 -9999 -9999 -9999 -9999 -9999 -9999 -9999 -9999 -9999 -9999 -9999 -9999 -9999 -9999 -9999 -9999 -9999 -9999 -9999 -9999 -9999 -9999 -9999 -9999 -9999 -9999 -9999 -9999 -9999 -9999 -9999 -9999 -9999 -9999 -9999 -9999 -9999 -9999 -9999 -9999 -9999 -9999 -9999 -9999 -9999 -9999 -9999 -9999 -9999 -9999 -9999 -9999 -9999 -9999 -9999 -9999 -9999 -9999 -9999 -9999 -9999 -9999 -9999 -9999 -9999 -9999 -9999 -9999 -9999 -9999 -9999 -9999 -9999 -9999 -9999 -9999 -9999 -9999 -9999 -9999 -9999 -9999 -9999 -9999 -9999 -9999 -9999 -9999 -9999 -9999 -9999 -9999 -9999 -9999 -9999 -9999 -9999 -9999 -9999 -9999 -9999 -9999 -9999 -9999 -9999 -9999 -9999 -9999 -9999 -9999 -9999 -9999 -9999 -9999 -9999 -9999 -9999 -9999 -9999 -9999 -9999 -9999 -9999 -9999 -9999 -9999 -9999 -9999 -9999 -9999 -9999 -9999 -9999 -9999 -9999 -9999 -9999 -9999 -9999 -9999 -9999 -9999 -9999 -9999 -9999 -9999 -9999 -9999 -9999 -9999 -9999 -9999 -9999 -9999 -9999 -9999 -9999 -9999 -9999 -9999 351.67 407.89 439.7 919.71 1331.55 1611.35 1505.35 1437.25 1172.37 1246.02 1102.2 807.11 788.04 730.48 771.62 1038.15 1048.5 956.45 780.78 733.22 919.04 766.27 729.46 774 704.9 653.63 674.1 754.36 726.08 719.05 689.84 646.74 612.74 576.01 535.75 583.86 609.05 608.35 633.78 643.74 668.78 604.47 580.96 549.72 532.33 540.66 544.24 517.9 516.7 561.04 560.37 513.57 481.42 506.63 531.3 486.6 426.57 431.49 436.94 390.01 332.34 303.83 283.41 299.14 256.48 186.44 204.85 300.81 346.59 315.21 278.76 233.82 223.16 225.93 245.41 262.7 284.94 288.89 301.53 307.71 323.4 330.57 319.79 309.77 317.82 382.93 459.79 486.33 495.23 553.41 601.75 628.46 635.63 636.66 645.28 652 657.5 655.6 658.12 652.33 642.54 629.81 621.88 620.02 602.89 611.49 637.02 677.34 576.99 556.24 530.68 491.55 497.47 498.11 491.02 500.29 528.97 545.82 556.44 620.61 710.26 806.24 888.25 827.61 736.87 607.96 482.8 393.19 337.85 306.99 289.17 260.1 235.48 219.22 212.43 205.57 199.11 216.69 250.96 272.86 274.78 266.2 247.2 229.76 222.86 245.47 262.63 277.29 290.41 299.58 331.96 371.99 438.04 422.89 379.57 390.86 392.71 306.8 384.48 469.84 557.31 640.49 614.52 636.4 643.09 661.09 846.81 913.94 784.91 688.53 568.38 500.55 511.69 484.62 442.48 407.38 384.85 377.83 366.73 337.53 344.45 355.4 375.56 372.55 355.87 350.7 351.18 350.59 334.74 303.7 285.74 247.32 234.41 251.07 261.59 266.31 286.32 318.82 316.59 298.49 334.71 292.18 339.94 391.66 430.52 518.29 501.67 468.28 442.94 448.39 421.16 392.45 379.5 389.52 399.51 405.54 414.05 413.15 415.26 433.14 457.05 475.34 494.91 501.73 489.48 485.09 493.1 519.05 541.97 572.92 621.21 650.56 716.03 821.15 894.87 1231.34 1302.09 2104.82 2388.9 2261.98 2252.81 2200.27 2764.33 2883.26 2130.79 1686.27 2058.37 2877.26 2485.36 2203.75 2415.55 2309.57 2478.52 2862.62 2042.34 1086.56 780.04 913.17 1553.92 1678.32 1521.34 1338.56 1447.77 1422.12 1359.16 1166.18 1085.31 891.71 892.64 664.38 572.65 667.13 770.89 845.9 691.46 658.58 568.65 453.06 417.77 412.13 341.84 363.75 415.52 455.33 513.4 538.42 395.58 252.93 191.53 139.8 97.03 73.89 66.78 69.59 -9999 -9999 -9999 -9999 -9999 -9999 -9999 -9999
-9999 -9999 -9999 -9999 -9999 -9999 -9999 -9999 -9999 -9999 -9999 -9999 -9999 -9999 -9999 -9999 -9999 -9999 -9999 -9999 -9999 -9999 -9999 -9999 -9999 -9999 -9999 -9999 -9999 -9999 -9999 -9999 -9999 -9999 -9999 -9999 -9999 -9999 -9999 -9999 -9999 -9999 -9999 -9999 -9999 -9999 -9999 -9999 -9999 -9999 -9999 -9999 -9999 -9999 -9999 -9999 -9999 -9999 -9999 -9999 -9999 -9999 -9999 -9999 -9999 -9999 -9999 -9999 -9999 -9999 -9999 -9999 -9999 -9999 -9999 -9999 -9999 -9999 -9999 -9999 -9999 -9999 -9999 -9999 -9999 -9999 -9999 -9999 -9999 -9999 -9999 -9999 -9999 -9999 -9999 -9999 -9999 -9999 -9999 -9999 -9999 -9999 -9999 -9999 -9999 -9999 -9999 -9999 -9999 -9999 -9999 -9999 -9999 -9999 -9999 -9999 -9999 -9999 -9999 -9999 -9999 -9999 -9999 -9999 -9999 -9999 -9999 -9999 -9999 -9999 -9999 -9999 -9999 -9999 -9999 -9999 -9999 -9999 -9999 -9999 -9999 -9999 -9999 -9999 -9999 -9999 -9999 -9999 -9999 -9999 -9999 -9999 -9999 -9999 -9999 -9999 -9999 -9999 -9999 -9999 -9999 -9999 -9999 -9999 -9999 -9999 -9999 -9999 -9999 -9999 -9999 260.37 492.25 710.97 1073.58 1077.09 1386.08 1364.28 1304.07 1114.73 841.75 748.12 610.89 616.21 582.76 499.74 514.59 535.65 541.19 529.27 669.59 642.68 637.61 676.82 697.65 675.56 618.82 561.48 547.33 585.75 673.7 677.3 663 650.72 608 586 553.67 503.04 546.64 605.81 594.8 605.26 599.56 598.97 563.08 539.22 520.19 484.48 491.85 503.69 509.57 511.78 521.56 496.65 438.53 415.96 443.08 474.29 449.93 398.6 416.27 413.53 377.13 345.93 320.17 281.39 294.8 299.72 282.12 277.46 308.9 316.28 304.18 304.16 262.47 257.54 255.99 270.84 278.78 283.76 313.74 310.01 331.58 326.89 310.4 326.38 328.16 416.27 484.07 507.18 528.94 572.96 611.33 619.94 635.38 660.96 658.18 674.65 672.42 672.23 683.87 653.66 597.9 599.89 592.47 573.7 575.55 549.9 531.95 612.38 787.13 620.86 549.13 517.73 484.24 463.71 457.99 451.61 500.26 539.33 556.64 590.32 620.52 707 788.26 857.96 876.48 766.87 619.95 507.13 398.53 342.79 313.92 261.11 237.68 220.25 224.1 227.43 238.87 250.44 235.9 269.23 293.03 302.73 301.04 273.31 248.31 235.25 244.7 257.93 274.08 281.2 272.52 293.32 360.4 425.12 395.05 379.99 430.23 416.8 331.73 423.86 540.68 618.69 612.27 573.98 598.03 645.51 677.68 752.36 919.45 790.36 639.24 544.69 597.96 593.89 535.12 479.36 441.68 423.86 406.92 374.71 358.18 376.04 392.58 403.85 380.39 361.57 351.22 341.87 337.95 316.56 267.43 259.69 264.78 229.12 226.27 241.77 255.68 265.96 307.65 303.1 298.17 299.44 296.38 341.96 378.89 426.37 413.77 413.91 432.52 453.04 469.68 411.74 378.8 388.65 409 415.73 426.62 457.88 444.06 440.51 472.28 510.44 520.09 543.05 531.2 514.63 514.43 531.17 514.72 535.36 549.14 601.58 645 748.4 804.61 1013.66 1318.91 1772.93 2024.7 1843.28 1885.51 1901.17 2206.3 2485.48 2430.77 2081.58 1705.06 1892.46 2263.92 1849.87 1770.22 1961.66 2188.97 2421.76 2774.54 1843.5 1212.88 1038.13 1144.03 2026.79 1577.17 1483.1 1504.38 1238.72 1501.03 1385.93 1334.28 1076.51 1091.27 1000.23 844.47 826.06 896.18 869.8 667.14 514.03 408.94 363.62 344.05 395.48 360.27 314.55 356.07 388.6 435.9 470 465.71 303.7 226.93 165.5 111.85 79.33 67.88 62.04 -9999 -9999 -9999 -9999 -9999 -9999 -9999 -9999 -9999
-9999 -9999 -9999 -9999 -9999 -9999 -9999 -9999 -9999 -9999 -9999 -9999 -9999 -9999 -9999 -9999 -9999 -9999 -9999 -9999 -9999 -9999 -9999 -9999 -9999 -9999 -9999 -9999 -9999 -9999 -9999 -9999 -9999 -9999 -9999 -9999 -9999 -9999 -9999 -9999 -9999 -9999 -9999 -9999 -9999 -9999 -9999 -9999 -9999 -9999 -9999 -9999 -9999 -9999 -9999 -9999 -9999 -9999 -9999 -9999 -9999 -9999 -9999 -9999 -9999 -9999 -9999 -9999 -9999 -9999 -9999 -9999 -9999 -9999 -9999 -9999 -9999 -9999 -9999 -9999 -9999 -9999 -9999 -9999 -9999 -9999 -9999 -9999 -9999 -9999 -9999 -9999 -9999 -9999 -9999 -9999 -9999 -9999 -9999 -9999 -9999 -9999 -9999 -9999 -9999 -9999 -9999 -9999 -9999 -9999 -9999 -9999 -9999 -9999 -9999 -9999 -9999 -9999 -9999 -9999 -9999 -9999 -9999 -9999 -9999 -9999 -9999 -9999 -9999 -9999 -9999 -9999 -9999 -9999 -9999 -9999 -9999 -9999 -9999 -9999 -9999 -9999 -9999 -9999 -9999 -9999 -9999 -9999 -9999 -9999 -9999 -9999 -9999 -9999 -9999 -9999 -9999 -9999 -9999 -9999 -9999 -9999 -9999 -9999 -9999 -9999 -9999 -9999 -9999 128.28 167.97 218.61 381.73 510.53 661.42 887.27 943.96 930.11 809.59 632.7 553.97 478.87 388.72 375.08 389.7 415.36 436.83 479.7 503.54 495.1 506.83 542.97 550.95 576.96 612.46 610.08 583.56 559.7 531.07 558.47 604.75 597.88 627.94 634.63 624.33 589.86 524.29 509.85 486.02 525.11 524.98 534.99 526.06 550.3 549.29 515.51 491.28 479.32 443.45 478.05 486.51 470.34 445.22 417.35 388.51 393.55 405.14 455.93 461.18 428.19 387.33 394.62 340.97 311.87 310.78 308.45 292.86 300.78 306.62 303.51 315.4 304.02 304 304.27 290.75 271.08 270.66 286.68 298.41 314.47 331.35 327.54 318.94 320.16 347.4 355.04 371.77 445.37 540.04 571.65 595.99 632.29 648.53 658.57 674.55 663.54 664.92 648.02 594.2 596.3 561.19 494.07 485.17 405.12 395.51 519.23 574.74 538.68 528.49 598.39 692.69 621.33 548.04 501.99 456.88 422.48 443.98 455.71 470.81 515.3 565.65 590.74 615.42 665.98 706.94 734.09 764.98 723.03 610.89 488.54 374.75 295.64 259.45 229.15 240.52 235.82 260.59 262.58 280.56 280.14 265.22 276.55 286.04 302.94 310.3 284.18 263.23 255.14 253.04 284.58 320.42 287.75 257.5 321.89 458.55 409.99 387.35 385.81 377.58 354.28 344.13 426.54 546.05 613.6 644.54 600.39 633.57 686.76 767.55 764.01 705.76 635.38 581.07 644.01 659.43 589.88 544.69 503.54 474.42 444.37 412.59 381.11 392.28 408.49 432 413.88 368.02 346.71 343.73 326.04 304.01 292.2 248.62 234.89 256.86 238.66 248.78 241.02 260.64 297.33 339.67 340.6 328.87 290.1 303.94 315.66 372.96 390.56 412.01 459.04 492.09 489.05 446.9 409.72 410.73 463.32 479.51 478.1 441.97 455.54 478.48 469.98 486.48 518.82 544.77 550.18 562.24 544.88 566.57 578.8 568.63 581.4 580.46 642.6 855.56 872.29 1068.6 1107.17 1418.14 1974.44 1821.59 1784 1798.25 2033.15 2294.71 2226.94 1783.12 2304.48 2085.28 1623.12 1882.93 1769.6 1661.62 1913.37 2595.79 2782.31 2845.53 1984.58 1164.95 1073.63 1577.33 2099.78 1377.23 1279.93 1276.78 1512.76 1704.38 1548.1 1244.72 1079.52 993.27 806.94 777.62 642.15 494.12 441.74 368.56 323.26 331.32 332.32 306.64 328.48 274.37 290.04 338.48 366.83 420.36 464.49 425.67 287.53 215.94 149.14 96.77 68.69 59.67 61.12 -9999 -9999 -9999 -9999 -9999 -9999 -9999 -9999 -9999
-9999 -9999 -9999 -9999 -9999 -9999 -9999 -9999 -9999 -9999 -9999 -9999 -9999 -9999 -9999 -9999 -9999 -9999 -9999 -9999 -9999 -9999 -9999 -9999 -9999 -9999 -9999 -9999 -9999 -9999 -9999 -9999 -9999 -9999 -9999 -9999 -9999 -9999 -9999 -9999 -9999 -9999 -9999 -9999 -9999 -9999 -9999 -9999 -9999 -9999 -9999 -9999 -9999 -9999 -9999 -9999 -9999 -9999 -9999 -9999 -9999 -9999 -9999 -9999 -9999 -9999 -9999 -9999 -9999 -9999 -9999 -9999 -9999 -9999 -9999 -9999 -9999 -9999 -9999 -9999 -9999 -9999 -9999 -9999 -9999 -9999 -9999 -9999 -9999 -9999 -9999 -9999 -9999 -9999 -9999 -9999 -9999 -9999 -9999 -9999 -9999 -9999 -9999 -9999 -9999 -9999 -9999 -9999 -9999 -9999 -9999 -9999 -9999 -9999 -9999 -9999 -9999 -9999 -9999 -9999 -9999 -9999 -9999 -9999 -9999 -9999 -9999 -9999 -9999 -9999 -9999 -9999 -9999 -9999 -9999 -9999 -9999 -9999 -9999 -9999 -9999 -9999 -9999 -9999 -9999 -9999 -9999 -9999 -9999 -9999 -9999 -9999 -9999 -9999 -9999 -9999 -9999 -9999 -9999 -9999 -9999 -9999 -9999 -9999 -9999 -9999 88.29 89.82 160.63 265.62 420.45 458.1 540.37 447.14 698.28 730.17 722.57 514.46 439.22 418.94 373.84 358.62 392.44 399.79 420.72 563.19 647.65 605.3 631.37 655.41 653.95 662.57 614.35 570.38 578.81 606.42 593.68 564.5 529.25 533.03 546.32 538.11 561.86 592.32 591.87 615.15 579.84 463.75 469.08 449.92 492.37 493.32 486.25 469.28 477.44 477.72 438.7 434.72 398.76 435.29 435.25 416.56 388.67 369.11 402.19 432.79 425.56 498.75 489.33 443.06 446.23 403.37 357.27 324.94 335.81 381.74 331.43 302.8 304.04 303.93 307.55 304.24 304 304.4 301.54 298.77 298.14 318.88 336.5 338.55 332.44 309.01 323.99 356.64 408.92 384.74 420.12 469.84 587.65 638.2 664.87 678.69 687.86 679.96 661.73 634.16 613.91 608.12 590.78 561.09 518 492.54 481.83 481.23 450.96 502.67 555.97 568.62 569.03 552.07 488.5 478.08 429.01 383.33 371.41 407.04 474.67 466.37 471.32 495.47 551.28 583.66 582.28 604.81 609.33 615.43 628.44 605.73 515.35 425.99 343.33 307.76 304.62 323.99 333.76 309.61 286.17 275.81 289.16 298.74 297.72 305.21 318.83 319.08 323.49 305.24 290.48 284.11 269.53 361.95 350.09 283.88 273.89 418.6 430.14 389.76 406.27 423.21 419.78 397.7 396.99 447.82 531.52 613.58 719.13 755.37 714.96 699.46 841.61 832.03 720.17 648.39 610.72 756.35 612.75 556.97 532.83 498.81 468.58 437.9 412.22 415.73 430.55 452.49 445.94 364.65 352.86 319.54 339.33 327.91 290.68 272.11 275.85 230.75 231.1 247.93 264.24 255.93 249.42 280.1 312.87 301.89 298.39 283.9 304.95 327.86 381.13 455.63 444.19 481.48 506.71 439.31 404.08 399.24 442.62 491.08 550.36 535.04 478.75 458.55 468.1 459.68 475.12 496.99 519.62 518.41 541.19 552.65 604.62 644.59 620.75 648.62 649.34 682.18 808.98 818.21 926.77 1031.78 1232.05 1750.9 1784.44 1798.44 1816.41 1900.83 1939.32 1980.44 2454.64 2604.06 2239.59 1936.78 1768.07 1702.04 1866.78 2428.89 2637.01 2687.21 2127.66 1693.38 1289.46 1439.6 2394.79 2312.29 1542.26 1486.26 1360.71 1969.99 1951.89 1497.13 1249.99 1018.8 923.6 761.5 635.25 594.8 478.13 344.77 297.13 263.39 269.29 246.39 243.61 236.15 192.35 264.93 299.97 353.7 418.32 460.25 347.5 249.32 178.73 119.99 81.66 60.54 55.63 -9999 -9999 -9999 -9999 -9999 -9999 -9999 -9999 -9999 -9999
-9999 -9999 -9999 -9999 -9999 -9999 -9999 -9999 -9999 -9999 -9999 -9999 -9999 -9999 -9999 -9999 -9999 -9999 -9999 -9999 -9999 -9999 -9999 -9999 -9999 -9999 -9999 -9999 -9999 -9999 -9999 -9999 -9999 -9999 -9999 -9999 -9999 -9999 -9999 -9999 -9999 -9999 -9999 -9999 -9999 -9999 -9999 -9999 -9999 -9999 -9999 -9999 -9999 -9999 -9999 -9999 -9999 -9999 -9999 -9999 -9999 -9999 -9999 -9999 -9999 -9999 -9999 -9999 -9999 -9999 -9999 -9999 -9999 -9999 -9999 -9999 -9999 -9999 -9999 -9999 -9999 -9999 -9999 -9999 -9999 -9999 -9999 -9999 -9999 -9999 -9999 -9999 -9999 -9999 -9999 -9999 -9999 -9999 -9999 -9999 -9999 -9999 -9999 -9999 -9999 -9999 -9999 -9999 -9999 -9999 -9999 -9999 -9999 -9999 -9999 -9999 -9999 -9999 -9999 -9999 -9999 -9999 -9999 -9999 -9999 -9999 -9999 -9999 -9999 -9999 -9999 -9999 -9999 -9999 -9999 -9999 -9999 -9999 -9999 -9999 -9999 -9999 -9999 -9999 -9999 -9999 -9999 -9999 -9999 -9999 -9999 -9999 -9999 -9999 -9999 -9999 -9999 -9999 39.37 47.36 48.85 50.29 89.38 120.4 146.45 108.91 174.34 241.72 331.28 260.6 357.62 480.27 469.97 506.48 468.84 362.02 311.62 289.29 306.51 344.29 402.58 464.81 428.05 516.67 523.47 521.07 613.14 676.5 662.14 638.13 630.19 613.48 596.42 567.56 562.21 582.9 591.34 591.94 555.72 538.6 505.03 504.17 536 548.49 552.27 574.6 575.95 507.75 529.2 542.9 455.9 459.62 438.87 408.41 398.51 390.5 383.05 364.78 354.06 383.37 374.25 361.83 350.43 361.09 422.65 479.47 507.37 498.72 468.16 495.91 490.77 361.33 359.77 388.21 409.63 426.61 478.18 312.2 304.3 326 306.59 310.46 307.69 315.89 295.84 310.44 309.74 339.17 351.51 335.84 328.1 341.53 343.82 393 465.84 507.3 527.6 556.93 613.26 667.44 676.46 668.15 651.58 637.95 623.87 600.53 588.37 597.67 591.08 578.09 557.76 537.06 511.39 483.23 450.8 504.89 501.24 482.33 422.85 372.48 337.31 330.01 347.67 385.54 418.01 438.69 477.9 468.9 467.51 472.03 484.89 494.21 493.22 502.71 501.88 505.6 541.19 560.6 478.95 392.51 386.56 391.33 404.19 372.06 337.26 307.03 319.31 319.57 316.64 339.15 339.02 332.18 354.44 372.46 375.69 372.75 389.92 335.4 294.06 328.81 316.61 325.83 309.18 371.97 401.27 404.3 447.22 493.08 484.77 449.63 441.97 474.03 525.58 581.67 718.6 825.15 805.55 682.9 718.58 792.29 708.59 662.08 648.34 857.47 605.68 548.96 527.2 493.53 456.91 448.88 455.13 459.44 481.86 487.67 397.97 417.88 407.63 339.25 349.5 320.45 304.37 271.8 258.13 228.71 234.96 257.49 254 277.94 266.93 258.5 280.11 270.78 285.31 314 353.25 335.61 411.69 458.89 456.48 454.97 454.64 436.42 399.36 462.83 504.35 492.61 502.24 480.04 459.01 443.69 449.53 446.61 464.21 478.19 489.05 510.69 514.31 522.63 571.45 576.66 554.81 552.5 596.73 716.73 747.69 789.05 820.2 989.48 1498.24 1804.7 1822.79 1880.08 2014.43 2321.49 2427.19 2515.86 3316.58 2822.19 2457.97 1760.39 1919.36 2624.56 2554.11 2583.66 2789.43 2503.32 2299.69 1764.05 1511.98 2184.38 2502.51 2233.89 2324.86 1795.23 1964.47 2122.81 1742.85 1447.09 1201.41 1091.58 949.66 824.98 634.12 615.57 544.19 364.93 329.5 267.48 222.7 240.76 190.26 178.53 187.89 212.71 295.83 337.33 408.82 391.18 301.48 214.11 141.71 90.14 62.99 51.86 59.9 -9999 -9999 -9999 -9999 -9999 -9999 -9999 -9999 -9999 -9999
-9999 -9999 -9999 -9999 -9999 -9999 -9999 -9999 -9999 -9999 -9999 -9999 -9999 -9999 -9999 -9999 -9999 -9999 -9999 -9999 -9999 -9999 -9999 -9999 -9999 -9999 -9999 -9999 -9999 -9999 -9999 -9999 -9999 -9999 -9999 -9999 -9999 -9999 -9999 -9999 -9999 -9999 -9999 -9999 -9999 -9999 -9999 -9999 -9999 -9999 -9999 -9999 -9999 -9999 -9999 -9999 -9999 -9999 -9999 -9999 -9999 -9999 -9999 -9999 -9999 -9999 -9999 -9999 -9999 -9999 -9999 -9999 -9999 -9999 -9999 -9999 -9999 -9999 -9999 -9999 -9999 -9999 -9999 -9999 -9999 -9999 -9999 -9999 -9999 -9999 -9999 -9999 -9999 -9999 -9999 -9999 -9999 -9999 -9999 -9999 -9999 -9999 -9999 -9999 -9999 -9999 -9999 -9999 -9999 -9999 -9999 -9999 -9999 -9999 -9999 -9999 -9999 -9999 -9999 -9999 -9999 -9999 -9999 -9999 -9999 -9999 -9999 -9999 -9999 -9999 -9999 -9999 -9999 -9999 -9999 -9999 -9999 -9999 -9999 -9999 -9999 -9999 -9999 -9999 -9999 -9999 -9999 -9999 -9999 -9999 -9999 -9999 -9999 -9999 -9999 -9999 -9999 59.16 64.72 83.16 127.89 173.03 198.39 263.14 252.85 166.31 251.36 279.63 332.13 432.84 426.82 331.39 294.99 285.47 284.13 289.24 300.66 335.41 384.98 428.3 558.73 549.11 528.36 569.39 562.23 571.62 571.64 585.15 582.05 579.78 580.99 562.05 547.85 529.38 514.91 515.89 527.73 556.4 599.32 584.96 565.17 482.16 481.5 487.24 526.27 515.25 513.7 503.49 480.35 441.1 428.11 360.22 382.55 371.67 374.16 331.82 329.04 308.05 320.38 333.6 332.41 330.22 337.26 357.08 387.76 419.05 434.58 459.57 551.13 549.99 520.12 453.59 426.7 480.83 486.59 471.87 503.57 400.36 389.34 483.69 482.29 428.76 447.27 441.23 332.38 335.59 334.41 339.86 330.55 345.47 384.62 428.1 461.04 496.12 529.62 519.81 523 502.42 553.52 558.26 583.29 602.05 584.7 575.67 583.16 573.9 558.88 558.3 554.43 548.61 536.38 522.4 500.62 482.82 453.88 422.47 406.79 356.2 309.77 304.43 306.97 360.34 404.01 422.5 468.01 463.65 482.87 476.25 462.24 448.7 449.38 441.71 442.43 468.87 489.76 515.5 562.2 549.98 487.81 458.05 384.73 359.49 339.57 322.77 334.07 346.06 354.41 370.67 361.42 382.71 399.76 382.59 407.39 414.96 425.46 461.53 471.82 394.49 379.24 402.47 455.21 471.59 406.21 346.23 352.83 394.72 467.25 576.87 535.97 463.48 466.4 498.49 545.09 601.19 698.05 703.38 716.77 661.08 727.64 687.87 627.99 629.29 657.87 708.88 596.79 571.96 563.63 502.01 488.14 493.71 490.1 511.61 509.7 448.74 374.79 416.45 374.33 350.99 348.41 312.04 281.57 262.72 267.73 260.36 259.7 268.75 284.46 300.35 294.22 288.16 293.22 299.86 350.33 380.35 358.71 328.18 353.48 383.68 413.3 429.82 449.4 419.29 423.22 470.06 466.13 447.79 453.41 448.83 429.76 425.16 425.41 442.05 454.17 458.76 474.9 488.39 484.81 524.46 559.72 516.04 496.24 507.33 542.73 581.87 639.59 919.56 1199.7 1058.28 1314.81 1670.75 1997.54 1982.07 2265.68 2549.54 2347.53 2545.81 2734.96 2500.66 1946.92 1792.1 2206.02 1921.1 2249.03 2631.39 2476.72 2224.97 1935.53 1685.79 1741.12 2699.54 2479.36 2187.75 1914.69 2162.38 2369.87 2168.73 1675.01 1296.81 1124.16 889.99 811.83 585.37 441.52 464.37 370.34 400.34 343.82 227.8 201.87 193.78 208.87 233.62 205.64 174.35 264.04 336.04 389.24 324.65 233.78 174.56 111.12 66.82 49.68 44.95 -9999 -9999 -9999 -9999 -9999 -9999 -9999 -9999 -9999 -9999 -9999
-9999 -9999 -9999 -9999 -9999 -9999 -9999 -9999 -9999 -9999 -9999 -9999 -9999 -9999 -9999 -9999 -9999 -9999 -9999 -9999 -9999 -9999 -9999 -9999 -9999 -9999 -9999 -9999 -9999 -9999 -9999 -9999 -9999 -9999 -9999 -9999 -9999 -9999 -9999 -9999 -9999 -9999 -9999 -9999 -9999 -9999 -9999 -9999 -9999 -9999 -9999 -9999 -9999 -9999 -9999 -9999 -9999 -9999 -9999 -9999 -9999 -9999 -9999 -9999 -9999 -9999 -9999 -9999 -9999 -9999 -9999 -9999 -9999 -9999 -9999 -9999 -9999 -9999 -9999 -9999 -9999 -9999 -9999 -9999 -9999 -9999 -9999 -9999 -9999 -9999 -9999 -9999 -9999 -9999 -9999 -9999 -9999 -9999 -9999 -9999 -9999 -9999 -9999 -9999 -9999 -9999 -9999 -9999 -9999 -9999 -9999 -9999 -9999 -9999 -9999 -9999 -9999 -9999 -9999 -9999 -9999 -9999 -9999 -9999 -9999 -9999 -9999 -9999 -9999 -9999 -9999 -9999 -9999 -9999 -9999 -9999 -9999 -9999 -9999 -9999 -9999 -9999 -9999 -9999 -9999 -9999 -9999 -9999 -9999 -9999 -9999 -9999 -9999 -9999 -9999 -9999 72.23 81.12 106.68 134.37 159.82 209.94 283.13 300.48 271.82 191.2 250.6 321.82 421.65 450.36 455.61 425.22 408.93 388.95 419.67 417.09 476.8 503.59 509.06 494.37 496.76 507.24 500.2 487.35 468.76 481.43 493.14 499.36 494.97 497.32 481.57 469.93 473.08 471.55 472.35 482.96 498.8 513.54 525.36 487.11 505.14 481.91 473.17 444.54 415.03 414.12 528.36 482.84 429.92 398.46 395.94 383.74 337.77 355.89 404.54 334.08 252.85 205.84 268.54 292.66 334.73 336.69 347.86 386.83 424.48 449.21 456.58 502.01 583.78 568.4 533.11 491.17 476.69 520.66 510.32 516.95 489.56 433.56 458.25 506.54 555.14 509.36 537.21 471.07 368.69 340.89 343.92 351.69 375.5 411.55 434.58 469.68 487.83 466.67 469.52 492.93 499.47 506.68 533.95 557.54 572.27 565.39 552.76 531.85 512.92 511.65 509.64 512.62 522.51 517.33 516.83 534.61 511.73 497.95 482.73 465.46 457.25 403.2 362.59 374.72 374.56 399.71 453.09 473.83 482.69 475.36 479.97 466.07 467.47 452.78 441.01 437.69 469.67 538.14 547.86 551.48 507.26 510 476.03 424.64 366.54 355.51 336.15 348.92 367.87 367.87 353.81 398.99 409.27 420.14 444.32 436.91 445.56 493.54 483.51 439.29 489.92 502.29 456.09 525.71 577.51 590.21 485.69 406.49 388.79 414.14 448.27 520.14 503.21 460.79 462.04 495.15 540.83 592.62 621.92 685.63 774.83 1039.4 696.42 616.15 635.05 664.18 663.5 638.16 600.45 601.54 563.79 546.02 550.71 529.98 528.66 555 530.38 467.29 412.03 387.08 360.01 355.7 362.66 365.93 334.16 310.99 291.03 289.34 292.85 313.96 310.96 318.97 294.4 312.34 300.14 352.29 407.96 440.87 380.23 359.28 346.66 335.5 356.99 423.24 467.41 427.25 387.18 409.29 409.02 416.24 408.26 408.05 415.41 439.35 432.71 427.43 434.94 449.08 467.86 488.81 507.57 543.92 539.35 492.4 480.09 490.92 513.07 562.54 688.93 999.02 1039.65 922.65 1141.6 1421.55 2051.22 2275.74 2515.46 2246.05 1903.39 2222.23 2138.14 2108.14 1346 1737.76 1971.14 2537.08 2652.78 2484.87 2120.52 1956.03 1660.7 1849.8 2535.52 3430.58 2243.44 1846.23 2442.21 2713.35 2414.42 1326.25 996.87 1168.58 1180.72 905.03 643.65 795.05 740.33 655.18 560.68 521.52 340.55 307.99 249.15 221.93 239.8 216.3 222.93 197.25 261.49 316.96 316.52 261.94 189.17 140.34 92.21 55.23 40.68 44.96 -9999 -9999 -9999 -9999 -9999 -9999 -9999 -9999 -9999 -9999 -9999
-9999 -9999 -9999 -9999 -9999 -9999 -9999 -9999 -9999 -9999 -9999 -9999 -9999 -9999 -9999 -9999 -9999 -9999 -9999 -9999 -9999 -9999 -9999 -9999 -9999 -9999 -9999 -9999 -9999 -9999 -9999 -9999 -9999 -9999 -9999 -9999 -9999 -9999 -9999 -9999 -9999 -9999 -9999 -9999 -9999 -9999 -9999 -9999 -9999 -9999 -9999 -9999 -9999 -9999 -9999 -9999 -9999 -9999 -9999 -9999 -9999 -9999 -9999 -9999 -9999 -9999 -9999 -9999 -9999 -9999 -9999 -9999 -9999 -9999 -9999 -9999 -9999 -9999 -9999 -9999 -9999 -9999 -9999 -9999 -9999 -9999 -9999 -9999 -9999 -9999 -9999 -9999 -9999 -9999 -9999 -9999 -9999 -9999 -9999 -9999 -9999 -9999 -9999 -9999 -9999 -9999 -9999 -9999 -9999 -9999 -9999 -9999 -9999 -9999 -9999 -9999 -9999 -9999 -9999 -9999 -9999 -9999 -9999 -9999 -9999 -9999 -9999 -9999 -9999 -9999 -9999 -9999 -9999 -9999 -9999 -9999 -9999 -9999 -9999 -9999 -9999 -9999 -9999 -9999 -9999 -9999 -9999 -9999 -9999 -9999 -9999 -9999 -9999 -9999 -9999 65.11 97.39 90.63 104.95 138 200.09 245.27 316.99 310.61 276.82 189.01 313.67 385.61 413.12 446.97 491.51 523.89 532.08 505.55 494.48 482.8 478.25 476.02 462.7 457.28 450.54 444.2 452.01 444.65 416.41 419.84 435.14 443.43 444.13 441.11 430.17 438.83 441.5 443.53 436.46 466.57 495.65 510.53 498.95 441.36 441.4 443.6 433.98 401.02 388.07 367.19 369.53 379.8 359.11 365.15 460.82 418.06 342.27 302.73 316.52 296.84 219.94 238.76 277.7 319.27 381.79 398.67 382.91 423.31 461.11 502.78 542.08 592.66 615.22 596.1 571.01 530.86 548.3 529.36 503.77 540.58 511.73 473.81 485.23 513.39 522.68 502.98 466.73 417.15 371.46 390.7 390.54 402.99 427.08 437.86 451.61 463.26 480.7 485.91 489.24 491.45 490.51 515.39 571.94 605.68 613.48 618.95 588.86 512.6 492.78 488.52 507.62 501.19 515.18 527.15 525.4 540.63 537.7 527.33 519.8 501.64 508.86 465.94 446.53 501.67 535.96 562.2 492.02 466.67 465.27 474.46 485.5 445.89 451.27 476.62 463.18 504.37 560.23 555.19 581.21 515.08 447.3 503.22 476.11 386.35 356.39 365.5 378.65 368.64 312.1 212.23 260.96 414.32 439.13 445.86 489.55 499.69 533.77 512.78 501.45 473.14 463.03 462.14 498.32 557.61 631.16 629.31 508.55 457.03 431.72 444.89 445.07 449.3 450.96 457.16 469.07 490.71 520.82 559.51 617.98 715.99 796.55 689.86 629.62 659.02 725.21 689.64 645 631.15 614.96 594.47 580.8 590.29 587.81 554.75 581.99 574.15 512.66 450.15 416.67 393.38 386.87 381.54 384.57 384.65 378.13 354.64 314.22 318.58 329.27 322.99 334.87 311.21 335.04 334.02 344.71 453.79 510.21 530.03 482.52 470.81 425.68 368.03 342.48 403.18 460.36 437.84 387.32 382.86 386.91 388.75 391.91 396.51 404.48 417.45 414.96 414.24 418.98 420.25 431.13 430.18 444.37 481.5 465.05 466.36 476.72 492.76 519.88 576.32 690.22 750.59 957.97 1173.85 1152.4 1398.61 2018.57 2442.77 2239.98 1748.2 1833.03 1865.82 1303.91 1489.85 1966.13 2068.1 2422.08 2577.69 2144.07 2129.51 2139.45 1797.89 1692.38 1844.74 2703.94 3020.06 2673.96 2492.46 3486.11 3849.74 2251.42 1147.7 939.56 900.48 875.4 990.96 786.28 1183.41 879.37 871.94 798.85 669.3 473.37 302.13 263.89 332.36 345.54 312.68 297.1 215.15 220.92 265.15 273.83 209.94 149.24 100.14 60.34 37.24 33.4 -9999 -9999 -9999 -9999 -9999 -9999 -9999 -9999 -9999 -9999 -9999 -9999
-9999 -9999 -9999 -9999 -9999 -9999 -9999 -9999 -9999 -9999 -9999 -9999 -9999 -9999 -9999 -9999 -9999 -9999 -9999 -9999 -9999 -9999 -9999 -9999 -9999 -9999 -9999 -9999 -9999 -9999 -9999 -9999 -9999 -9999 -9999 -9999 -9999 -9999 -9999 -9999 -9999 -9999 -9999 -9999 -9999 -9999 -9999 -9999 -9999 -9999 -9999 -9999 -9999 -9999 -9999 -9999 -9999 -9999 -9999 -9999 -9999 -9999 -9999 -9999 -9999 -9999 -9999 -9999 -9999 -9999 -9999 -9999 -9999 -9999 -9999 -9999 -9999 -9999 -9999 -9999 -9999 -9999 -9999 -9999 -9999 -9999 -9999 -9999 -9999 -9999 -9999 -9999 -9999 -9999 -9999 -9999 -9999 -9999 -9999 -9999 -9999 -9999 -9999 -9999 -9999 -9999 -9999 -9999 -9999 -9999 -9999 -9999 -9999 -9999 -9999 -9999 -9999 -9999 -9999 -9999 -9999 -9999 -9999 -9999 -9999 -9999 -9999 -9999 -9999 -9999 -9999 -9999 -9999 -9999 -9999 -9999 -9999 -9999 -9999 -9999 -9999 -9999 -9999 -9999 -9999 -9999 -9999 -9999 -9999 -9999 -9999 61.62 64.3 90.75 140.55 127.37 147.79 128.59 151.96 129.84 157.73 182.26 196.86 201.24 179.89 178.46 236.27 250.55 349.61 478.46 532.01 527.69 504.61 495.35 480.15 466.67 458.6 463.45 456.38 449.88 419.19 376.8 391.2 389.88 361.08 377.78 397.45 412.08 415.92 417.86 425.71 427.96 429.66 421.95 403.85 507.65 546.39 557.63 549.96 421.02 410.93 418.39 403.35 394.71 387.08 373.84 357.13 351.65 300.75 313.25 358.01 377.5 333.76 296.08 300.01 304.2 242.79 264.07 286.26 340.97 384.66 402.88 389.32 426.63 469.44 515.67 567.03 610.77 638.38 633.42 618.7 600.09 602.86 576.23 551.98 595.51 556.11 495.69 505.03 544.89 502.57 442.56 410.82 426.13 405.38 389.73 373.67 389.1 419.99 447.71 472.24 491.74 497.27 482.87 521.73 543.66 554.91 594.18 609.18 612.92 597.76 581.8 574.22 500.62 483.23 491.96 510.02 506.45 522.5 553.88 536.53 546.1 541.16 548.99 542.58 523.32 502.65 503.11 565.81 590.42 594.14 540.67 461.3 458.88 451.44 448.55 439.38 434.82 478.48 514.18 505.66 577.4 599.35 551.6 557.66 453.91 423.54 444.72 432.77 385.2 396.74 377.73 352.92 321.37 272.78 201.21 322.67 429.05 494.78 556.02 554.19 584.52 571.06 563.77 523.38 480.73 474.27 484.35 530.18 629.92 564.57 530.66 504.66 479.5 470.32 471.7 468.37 465.27 471.55 487.98 488.19 495.34 509.48 536.85 580.91 596.94 653.12 607.61 595.34 656.67 644.14 644.2 644.06 614.26 603.59 587.82 591.61 587.01 577.16 588.57 635.53 577.81 513.65 463.6 438.55 416.13 398.64 403.91 409.98 405.69 402.63 349.11 348.48 365.45 388.49 368.28 343.9 359.68 428.73 360.66 342.98 428.51 538.13 611.55 579.07 588.37 555.18 396.71 342.28 376.8 434.15 420.98 393.72 382.94 386.12 394.19 396.53 400.93 408.29 409.09 406.92 409.4 403.36 399.05 420.92 428.46 429.8 441.58 457.63 468.02 481.45 498.84 547.16 622.46 660.02 765 1038.07 1529.88 1078.74 1515.45 1882.8 1890.2 1702.61 1408.5 1456.69 1307.84 1555.92 1795.3 1545.71 1849.28 2554.13 2368.59 2162.85 2661.66 2391.6 1857.1 1663.15 2054.62 2674.12 3092.57 2563.51 2652.22 3018.32 2112.09 1450.61 1136.89 1145.19 1027.14 1246.16 952.03 1047.69 1136.99 989.4 847.15 718.9 669.53 424.84 308.13 377.74 487.08 473.62 463.03 332.19 260.35 140.03 200.7 193.82 149.73 103.33 56.16 36.13 28.43 31.56 -9999 -9999 -9999 -9999 -9999 -9999 -9999 -9999 -9999 -9999 -9999 -9999
-9999 -9999 -9999 -9999 -9999 -9999 -9999 -9999 -9999 -9999 -9999 -9999 -9999 -9999 -9999 -9999 -9999 -9999 -9999 -9999 -9999 -9999 -9999 -9999 -9999 -9999 -9999 -9999 -9999 -9999 -9999 -9999 -9999 -9999 -9999 -9999 -9999 -9999 -9999 -9999 -9999 -9999 -9999 -9999 -9999 -9999 -9999 -9999 -9999 -9999 -9999 -9999 -9999 -9999 -9999 -9999 -9999 -9999 -9999 -9999 -9999 -9999 -9999 -9999 -9999 -9999 -9999 -9999 -9999 -9999 -9999 -9999 -9999 -9999 -9999 -9999 -9999 -9999 -9999 -9999 -9999 -9999 -9999 -9999 -9999 -9999 -9999 -9999 -9999 -9999 -9999 -9999 -9999 -9999 -9999 -9999 -9999 -9999 -9999 -9999 -9999 -9999 -9999 -9999 -9999 -9999 -9999 -9999 -9999 -9999 -9999 -9999 -9999 -9999 -9999 -9999 -9999 -9999 -9999 -9999 -9999 -9999 -9999 -9999 -9999 -9999 -9999 -9999 -9999 -9999 -9999 -9999 -9999 -9999 -9999 -9999 -9999 -9999 -9999 -9999 -9999 -9999 -9999 -9999 -9999 -9999 -9999 -9999 -9999 -9999 89.11 85.13 62.1 130.51 170.54 176.2 168.08 179.54 194.25 212.93 246.28 285.55 237.76 192.28 187.85 197.65 220.91 237.16 257.52 311.61 392.73 475.92 502.97 494.62 476.42 454.33 446.12 450.72 449.96 423.52 381.25 357.17 363.87 369.03 369.74 404.77 410.45 406.86 405.1 404.54 431.78 455.13 446.62 432.46 415.49 540.32 576.55 583.48 564.67 418.56 400.84 384.71 378.24 363.2 375.97 364.55 359.22 335.57 308.14 321.73 309.09 303.53 302.87 292.79 278.48 282.86 260.5 275.07 293.63 338.04 372.89 391.71 412.95 475.99 500.96 538.35 602.35 617.4 621.1 671.09 653.46 631.44 602.04 614.35 610.43 610.33 562.9 514.22 541.83 582 503.17 493.84 443.14 491.79 468.85 406.07 390.62 395.85 435.9 452.8 450.98 460.76 471.71 481.84 501.7 533.55 543.85 573.37 597.52 593.02 569.71 551.96 555.03 526.42 480.41 522.12 535.48 546.17 551.18 538.05 534.37 525.82 529.14 526.74 494.5 545.33 587.48 587.26 581.78 539.25 514.51 484.1 456.18 455.14 451 461.64 438.78 473.81 526.5 517.7 555.02 621.04 561.43 545.13 563.55 463.85 437.3 378.91 254.75 277.21 315.21 282.96 275.77 271.29 288.17 308.71 318.54 430.69 552.46 610.26 675.99 685.76 663.45 620.34 556.34 483.67 514.4 548.54 504.43 512.43 512.64 513.52 513.83 509.02 513.25 517.31 521.45 540.46 556 530.03 510.66 520.08 541.22 553.43 576.34 611.39 604.59 606.83 640.64 662.99 627.09 604.08 596.24 594.94 605.83 578.11 568.79 574.36 596.08 608.69 651.32 631.66 598.55 536.29 491.58 463.26 440.5 438.87 422.85 414.34 364.23 373.61 418.03 408.54 371.61 343.91 381.27 430.36 485.96 359.38 360.14 401.74 471.99 557.64 603.13 596.86 471.89 415.44 372.15 401.69 440.55 454.34 421.73 384.38 394.13 395.97 401.84 410.59 412.47 412.59 412.96 407.66 405.32 400.07 404.12 411.49 424.72 444.05 458.86 470.96 488.13 510.56 546.78 604.05 689.04 831.01 1180.24 965.64 1099.43 1474.29 1480.94 1220.99 1268.34 1812.14 2256.07 2289.87 2224.26 2085.46 1926.99 2077.82 2651.72 2497.45 2370.86 2935.13 2140.81 1861.78 1665.42 1837.64 2876.87 2732.64 2632.49 2930.71 2313.05 1498.79 1188.52 1165.32 1238.36 1279.39 1062.09 1028.55 1135.57 988.07 795.94 642.79 526.84 376.26 395.81 454.5 470.75 501.23 484.33 531.02 336.37 179.67 102.64 115.23 114.02 91.97 65.41 41.42 29.77 27.37 38.62 -9999 -9999 -9999 -9999 -9999 -9999 -9999 -9999 -9999 -9999 -9999 -9999
-9999 -9999 -9999 -9999 -9999 -9999 -9999 -9999 -9999 -9999 -9999 -9999 -9999 -9999 -9999 -9999 -9999 -9999 -9999 -9999 -9999 -9999 -9999 -9999 -9999 -9999 -9999 -9999 -9999 -9999 -9999 -9999 -9999 -9999 -9999 -9999 -9999 -9999 -9999 -9999 -9999 -9999 -9999 -9999 -9999 -9999 -9999 -9999 -9999 -9999 -9999 -9999 -9999 -9999 -9999 -9999 -9999 -9999 -9999 -9999 -9999 -9999 -9999 -9999 -9999 -9999 -9999 -9999 -9999 -9999 -9999 -9999 -9999 -9999 -9999 -9999 -9999 -9999 -9999 -9999 -9999 -9999 -9999 -9999 -9999 -9999 -9999 -9999 -9999 -9999 -9999 -9999 -9999 -9999 -9999 -9999 -9999 -9999 -9999 -9999 -9999 -9999 -9999 -9999 -9999 -9999 -9999 -9999 -9999 -9999 -9999 -9999 -9999 -9999 -9999 -9999 -9999 -9999 -9999 -9999 -9999 -9999 -9999 -9999 -9999 -9999 -9999 -9999 -9999 -9999 -9999 -9999 -9999 -9999 -9999 -9999 -9999 -9999 -9999 -9999 -9999 -9999 -9999 -9999 -9999 -9999 -9999 -9999 -9999 91.47 105.35 123.04 129.92 116.99 154.33 166.51 217.52 221.3 234.45 258.11 296.4 342.46 367.97 274.08 231.34 211.21 246.24 265.49 285.39 311.66 368.88 406.02 507.18 484.11 475.44 455.08 449.22 452.67 449.54 436.05 417.67 416.15 349.24 322.38 335.3 382.6 381.21 380.28 372.49 380.72 400.87 412.11 403.14 391.2 388.14 483.47 560.22 555.98 480.92 406.74 404.82 409.06 391.13 385.72 364.88 349.66 347.46 335.78 370.93 376.84 346.75 313.88 301.5 290.06 273.41 265.17 277.22 294.15 316.32 358.31 372.17 362.68 404.76 478.11 517.38 564.17 598.79 448.6 534.52 569.84 464.96 490.01 524.19 563.33 597.91 545.54 517.37 493.96 500.22 502.05 560.61 491.75 519.05 578.82 532.66 419.65 420.17 406.29 451.3 439.78 465.7 478.12 472.43 477.72 499.69 536.19 535.64 535.85 533.37 524.14 534.34 573.28 595.75 573.57 546.12 543.25 577.4 577.51 552.23 536.62 519.88 509 533.36 596.96 696.79 670.46 616.64 569.6 538.88 527.69 543.88 556.75 530.79 515.25 473.09 468.73 467.48 533.19 521.5 553.67 642.87 615.45 519.59 502.25 496.72 426.8 365.58 250.03 165.06 202.19 226.69 243.66 284.37 325.66 357.78 397.78 441.38 458.46 594.57 709.38 795.85 803.15 699.15 639.67 511.48 506 550.29 559.78 569.86 559.28 563.12 551.97 538.83 536.14 540.91 544.68 543.7 548.06 546.59 523.54 514 536.12 583.49 622.87 639.69 662.55 659.55 657.13 664.07 655.11 607.69 619.74 608.84 570.49 590.62 568.95 574.67 593.35 607.93 601.8 644.62 689.63 660.39 578.57 513.8 475.41 486.22 435.41 411.61 415.46 428.01 458.3 433.03 378.22 354.68 390.44 421.44 506.32 396.46 375.85 425.78 423.01 496.08 561.95 647.18 567.68 491.04 447.29 401.64 394.55 421.86 440.21 418.65 388.33 395.97 400.35 403.3 411.73 442.76 440.11 438.96 420.38 412.45 409.26 414.35 430.05 436.96 444.51 464.85 483.78 506.08 548.57 594.94 633.81 747.94 831.76 899.06 955.44 1296.31 1323.68 1009.85 1520.54 1802.65 1748.3 1854.19 2454.4 2285.33 2410.72 2287.22 2594.75 2192.44 1913.71 2223.95 2946.16 2135.16 1749.25 1598.87 2051.88 2609.91 2589.54 2807.23 2202.78 1922.7 1518.58 1330.6 1437.16 1343.53 1144.9 1134.19 977.55 840.76 797.93 667.1 578.62 496.24 464.76 529.18 429.96 431.96 444.56 489.4 459.84 236.39 227.66 142.93 100.1 69.06 58.84 47.66 37.41 26.78 24.08 -9999 -9999 -9999 -9999 -9999 -9999 -9999 -9999 -9999 -9999 -9999 -9999 -9999
